# .PCD v0.7 - Point Cloud Data file format
VERSION 0.7
FIELDS x y z rgba
SIZE 4 4 4 4
TYPE F F F U
COUNT 1 1 1 1
WIDTH 1270
HEIGHT 1
VIEWPOINT 0 0 0 1 0 0 0
POINTS 1270
DATA ascii
0.89341623 -0.18429999 1.8430001 12625257
0.90043718 -0.18429999 1.8430001 12558440
0.90745813 -0.18429999 1.8430001 12623463
0.91447902 -0.18429999 1.8430001 11966579
0.91649997 -0.1833 1.8330001 8012847
0.91391057 -0.18140002 1.8140001 5979944
0.9111762 -0.1795 1.7950001 7294484
0.9134115 -0.17860001 1.7860001 7753241
0.91094106 -0.17680001 1.7680001 7883797
0.90833336 -0.17500001 1.7500001 7753236
0.91029429 -0.17410001 1.7410001 7752725
0.91218674 -0.17320001 1.7320001 7883540
0.90976667 -0.1715 1.715 8014618
0.91149145 -0.1706 1.7060001 8014886
0.91799057 -0.1706 1.7060001 8146983
nan nan nan 8343847
nan nan nan 8474901
nan nan nan 8343573
nan nan nan 8211220
nan nan nan 8079379
nan nan nan 7816979
nan nan nan 7555091
nan nan nan 7356946
-1.0291392 -0.1872724 1.8040001 8479802
-1.0336 -0.18934858 1.8240001 8545850
-1.0317171 -0.19028287 1.8330001 8742202
-1.0359153 -0.19235905 1.853 9005888
-1.0344086 -0.19339715 1.863 9073474
-1.0383401 -0.19547334 1.8830001 8813388
-1.0371906 -0.19661523 1.8940001 8411471
-1.0299752 -0.19661523 1.8940001 8547395
-1.02276 -0.19661523 1.8940001 9532004
-1.0155448 -0.19661523 1.8940001 10389858
-1.0024734 -0.19547334 1.8830001 10720611
-1.0011144 -0.19661523 1.8940001 11049317
-0.98812675 -0.19547334 1.8830001 11312234
-0.98668385 -0.19661523 1.8940001 11443816
-0.98464006 -0.19765334 1.904 11378793
-0.97738665 -0.19765334 1.904 11378794
-0.97013336 -0.19765334 1.904 11575916
-0.96288002 -0.19765334 1.904 11706731
-0.95562667 -0.19765334 1.904 11640424
-0.94837338 -0.19765334 1.904 11509346
-0.94112003 -0.19765334 1.904 11443302
-0.93386668 -0.19765334 1.904 11508587
-0.92661333 -0.19765334 1.904 11704685
-0.91935998 -0.19765334 1.904 11704677
-0.91210669 -0.19765334 1.904 11770985
-0.90485334 -0.19765334 1.904 11837547
-0.89760005 -0.19765334 1.904 11970670
-0.89034665 -0.19765334 1.904 11970414
-0.88309336 -0.19765334 1.904 12166773
-0.87584001 -0.19765334 1.904 12297330
-0.86858666 -0.19765334 1.904 12362865
-0.86630958 -0.19879524 1.9150001 12362871
-0.85901427 -0.19879524 1.9150001 12297589
-0.84682667 -0.19765334 1.904 12166766
-0.83957332 -0.19765334 1.904 12099944
-0.83232003 -0.19765334 1.904 12099688
-0.82506669 -0.19765334 1.904 12099945
-0.81781334 -0.19765334 1.904 12034923
-0.81055999 -0.19765334 1.904 12100714
-0.8033067 -0.19765334 1.904 12166506
-0.80065244 -0.19879524 1.9150001 12362607
-0.79335713 -0.19879524 1.9150001 12428659
-0.78606194 -0.19879524 1.9150001 12428910
nan nan nan 12428649
nan nan nan 12429161
nan nan nan 12428911
nan nan nan 12363125
nan nan nan 12363638
nan nan nan 12628104
nan nan nan 10520137
nan nan nan 6239268
-0.37920001 -0.10464 1.008 4670016
-0.37461525 -0.10443239 1.006 5855576
-0.37078288 -0.10443239 1.006 8478540
-0.36767998 -0.10464 1.008 10314315
-0.36492285 -0.10495143 1.011 10640713
-0.36107144 -0.10495143 1.011 10443572
-0.35722002 -0.10495143 1.011 10313543
-0.35336858 -0.10495143 1.011 10510406
-0.34778857 -0.10443239 1.006 10378564
-0.3439562 -0.10443239 1.006 10379855
-0.3401238 -0.10443239 1.006 10381117
-0.33629143 -0.10443239 1.006 10249798
-0.33311999 -0.10464 1.008 10118730
-0.32862666 -0.10443239 1.006 10118994
-0.32479432 -0.10443239 1.006 10053439
-0.32159999 -0.10464 1.008 10119754
-0.31618381 -0.10412095 1.003 10448193
-0.31236288 -0.10412095 1.003 10315856
-0.30854189 -0.10412095 1.003 10052418
-0.30563238 -0.10443239 1.006 10249294
-0.30330002 -0.10495143 1.011 10577217
-0.29855999 -0.10464 1.008 10579265
-0.29471999 -0.10464 1.008 10711875
-0.29087999 -0.10464 1.008 10777154
-0.28789428 -0.10495143 1.011 10842951
-0.28320003 -0.10464 1.008 10776390
-0.2788057 -0.10443239 1.006 10645574
-0.27552 -0.10464 1.008 10646339
-0.27168 -0.10464 1.008 10645826
-0.26730859 -0.10443239 1.006 10711110
-0.26347622 -0.10443239 1.006 10448967
-0.25886953 -0.10412095 1.003 10187078
-0.25504857 -0.10412095 1.003 10187332
-0.25122762 -0.10412095 1.003 10317893
-0.24740668 -0.10412095 1.003 10447682
-0.24358571 -0.10412095 1.003 10381380
-0.23976476 -0.10412095 1.003 10251329
-0.23594382 -0.10412095 1.003 10384966
-0.23212285 -0.10412095 1.003 10451524
-0.22830191 -0.10412095 1.003 10317890
-0.22448096 -0.10412095 1.003 10317122
-0.22066 -0.10412095 1.003 10383167
-0.21683905 -0.10412095 1.003 10319686
-0.2130181 -0.10412095 1.003 10252874
-0.20919713 -0.10412095 1.003 10317640
-0.20537619 -0.10412095 1.003 10252358
-0.20155525 -0.10412095 1.003 10188616
-0.19773428 -0.10412095 1.003 10120267
-0.19391334 -0.10412095 1.003 9990473
-0.19009238 -0.10412095 1.003 10055494
-0.18627143 -0.10412095 1.003 10186309
-0.18245047 -0.10412095 1.003 10187079
-0.17862953 -0.10412095 1.003 10122055
-0.17480858 -0.10412095 1.003 10125383
-0.17098762 -0.10412095 1.003 9993284
-0.16716668 -0.10412095 1.003 10058315
-0.16334571 -0.10412095 1.003 10316622
-0.15952477 -0.10412095 1.003 10389325
-0.15570381 -0.10412095 1.003 10127184
-0.15188286 -0.10412095 1.003 10258248
-0.14761904 -0.10380952 1 10388288
-0.14380953 -0.10380952 1 10388039
-0.14 -0.10380952 1 10389315
-0.13659905 -0.10412095 1.003 10324569
-0.13238095 -0.10380952 1 10259764
-0.12857142 -0.10380952 1 9866071
-0.1247619 -0.10380952 1 9865529
-0.12095238 -0.10380952 1 10192964
-0.11749429 -0.10412095 1.003 10323807
-0.11367334 -0.10412095 1.003 10388034
-0.10985238 -0.10412095 1.003 10255937
-0.10571428 -0.10380952 1 10191964
-0.10190476 -0.10380952 1 10258492
-0.098095238 -0.10380952 1 10256729
-0.094285712 -0.10380952 1 10255429
-0.090476193 -0.10380952 1 10190150
-0.086406671 -0.1034981 0.99700004 10124358
-0.082857139 -0.10380952 1 10058824
-0.07904762 -0.10380952 1 9862223
-0.075238094 -0.10380952 1 9994329
-0.071428567 -0.10380952 1 9995338
-0.067619048 -0.10380952 1 9995095
-0.064000957 -0.10412095 1.003 9994828
-0.059999999 -0.10380952 1 10258772
-0.056190476 -0.10380952 1 10588505
-0.052380953 -0.10380952 1 10325827
-0.048571426 -0.10380952 1 10127956
-0.044761904 -0.10380952 1 10323287
-0.040952381 -0.10380952 1 10585173
-0.037142858 -0.10380952 1 10585179
-0.033333331 -0.10380952 1 10388318
-0.029523809 -0.10380952 1 10519640
-0.025714286 -0.10380952 1 10651230
-0.021904761 -0.10380952 1 10782817
-0.018095238 -0.10380952 1 10849128
-0.014328571 -0.10412095 1.003 10784635
-0.010507619 -0.10412095 1.003 11046509
-0.0066666668 -0.10380952 1 11504501
-0.0028571428 -0.10380952 1 11702138
0.00095238094 -0.10380952 1 11769468
0.0047619045 -0.10380952 1 11704447
0.0085714282 -0.10380952 1 12032118
0.012418096 -0.10412095 1.003 12295558
0.016239049 -0.10412095 1.003 12297356
0.020059999 -0.10412095 1.003 12363922
0.023880953 -0.10412095 1.003 12563085
0.027701905 -0.10412095 1.003 13088159
0.031522855 -0.10412095 1.003 13352611
0.035343811 -0.10412095 1.003 13616311
0.039047617 -0.10380952 1 14142153
0.042857144 -0.10380952 1 14274748
0.046526667 -0.1034981 0.99700004 14603475
0.05047619 -0.10380952 1 15065296
0.054285713 -0.10380952 1 15262674
0.058269527 -0.10412095 1.003 15259327
0.062090475 -0.10412095 1.003 14866119
0.065714285 -0.10380952 1 14342848
0.069523811 -0.10380952 1 14142149
0.07333333 -0.10380952 1 13616554
0.077374287 -0.10412095 1.003 13152922
0.081195243 -0.10412095 1.003 12889495
0.085016191 -0.10412095 1.003 12493710
0.088571429 -0.10380952 1 12229771
0.092380948 -0.10380952 1 11900807
0.096479051 -0.10412095 1.003 11572095
0.1 -0.10380952 1 11505531
0.10412095 -0.10412095 1.003 11440245
0.10794191 -0.10412095 1.003 11373680
0.11176286 -0.10412095 1.003 11305831
0.11558381 -0.10412095 1.003 10912618
0.11940476 -0.10412095 1.003 10779749
0.12322572 -0.10412095 1.003 10779228
0.12704667 -0.10412095 1.003 10516321
0.13086762 -0.10412095 1.003 10384734
0.13509144 -0.10443239 1.006 9925203
0.13892382 -0.10443239 1.006 9400917
0.14275619 -0.10443239 1.006 9335375
0.14615142 -0.10412095 1.003 9663317
0.14997239 -0.10412095 1.003 9925465
0.15379333 -0.10412095 1.003 9925209
0.15761429 -0.10412095 1.003 9990485
0.16143525 -0.10412095 1.003 9924691
0.16525619 -0.10412095 1.003 10121553
0.16907714 -0.10412095 1.003 10121297
0.1728981 -0.10412095 1.003 9727825
0.17671905 -0.10412095 1.003 9794128
0.18054 -0.10412095 1.003 9925712
0.18436097 -0.10412095 1.003 9990479
0.18818191 -0.10412095 1.003 10121546
0.19257715 -0.10443239 1.006 10120513
0.19640954 -0.10443239 1.006 10119237
0.20024191 -0.10443239 1.006 10119751
0.20346572 -0.10412095 1.003 10054985
0.20728667 -0.10412095 1.003 10055755
0.21110763 -0.10412095 1.003 10054730
0.21492857 -0.10412095 1.003 10121800
0.21874954 -0.10412095 1.003 10056772
0.22257048 -0.10412095 1.003 9990726
0.22639142 -0.10412095 1.003 10055237
0.23021239 -0.10412095 1.003 10119750
0.23403333 -0.10412095 1.003 10054210
0.23785429 -0.10412095 1.003 10055492
0.24167524 -0.10412095 1.003 10056770
0.24549618 -0.10412095 1.003 10055237
0.24931715 -0.10412095 1.003 10185285
0.2531381 -0.10412095 1.003 10316606
0.25695905 -0.10412095 1.003 10382140
0.26078001 -0.10412095 1.003 10382908
0.26380953 -0.10380952 1 10448967
0.26761904 -0.10380952 1 10317632
0.27142856 -0.10380952 1 10252346
0.2752381 -0.10380952 1 10187581
0.27988476 -0.10412095 1.003 9859651
0.28370571 -0.10412095 1.003 9661760
0.28666666 -0.10380952 1 9660227
0.29047617 -0.10380952 1 9595715
0.29428571 -0.10380952 1 9464903
0.2989895 -0.10412095 1.003 9530952
0.30281049 -0.10412095 1.003 9991232
0.30663145 -0.10412095 1.003 10186306
0.31045237 -0.10412095 1.003 9922114
0.31333333 -0.10380952 1 9988931
0.31714284 -0.10380952 1 10122826
0.32095239 -0.10380952 1 10122810
0.3247619 -0.10380952 1 9990983
0.32857144 -0.10380952 1 9793090
0.33238095 -0.10380952 1 9661756
0.33619046 -0.10380952 1 9727034
0.34 -0.10380952 1 9594942
0.34380952 -0.10380952 1 9463359
0.34761906 -0.10380952 1 9530684
0.35142857 -0.10380952 1 9530173
0.35523808 -0.10380952 1 9463861
0.35904762 -0.10380952 1 7555908
0.3617686 -0.1034981 0.99700004 5589571
0.36446667 -0.10318667 0.99400002 4931651
0.36936477 -0.1034981 0.99700004 4538150
0.37316287 -0.1034981 0.99700004 8888694
0.70817244 -0.19443525 1.8730001 12687970
0.71530765 -0.19443525 1.8730001 12426087
0.71472859 -0.19235905 1.853 12493675
0.72178763 -0.19235905 1.853 12625517
0.72884667 -0.19235905 1.853 12756079
0.73590571 -0.19235905 1.853 12689774
0.74697429 -0.19339715 1.863 12558699
0.75002384 -0.19235905 1.853 12493673
0.76116854 -0.19339715 1.863 12492646
0.76414192 -0.19235905 1.853 12492642
0.77120101 -0.19235905 1.853 12558694
0.77826005 -0.19235905 1.853 12624234
0.78108096 -0.19132096 1.8430001 12624237
0.78810191 -0.19132096 1.8430001 12623979
0.79512286 -0.19132096 1.8430001 12623980
0.80214381 -0.19132096 1.8430001 12559213
0.80916482 -0.19132096 1.8430001 12559216
0.82061428 -0.19235905 1.853 12558957
0.82320666 -0.19132096 1.8430001 12558700
0.83022761 -0.19132096 1.8430001 12493418
0.83724856 -0.19132096 1.8430001 12558698
0.84426957 -0.19132096 1.8430001 12690537
0.85590953 -0.19235905 1.853 12756331
0.86296856 -0.19235905 1.853 12756338
0.8700276 -0.19235905 1.853 12625010
0.8770867 -0.19235905 1.853 12624237
0.88414574 -0.19235905 1.853 12690284
0.89120477 -0.19235905 1.853 12625264
0.89826381 -0.19235905 1.853 12494185
0.90532291 -0.19235905 1.853 12362336
0.91238195 -0.19235905 1.853 12360792
0.91447902 -0.19132096 1.8430001 11308887
0.91649997 -0.19028287 1.8330001 7418382
0.90887249 -0.1872724 1.8040001 5851942
0.9111762 -0.18633811 1.7950001 7295263
0.9134115 -0.18540382 1.7860001 7687964
0.91094106 -0.18353526 1.7680001 7753243
0.90833336 -0.18166667 1.7500001 7687705
0.91029429 -0.18073238 1.7410001 7687963
0.91218674 -0.1797981 1.7320001 7884310
0.91401047 -0.17886381 1.723 8080660
0.9072172 -0.17626858 1.6980001 8080164
0.91368574 -0.17626858 1.6980001 8080675
nan nan nan 8277525
nan nan nan 8474133
nan nan nan 8474132
nan nan nan 8277013
nan nan nan 8014100
nan nan nan 7817235
nan nan nan 7620884
nan nan nan 7488786
-1.0348438 -0.19522096 1.8140001 8545591
-1.0336 -0.19629715 1.8240001 8545329
-1.0317171 -0.19726573 1.8330001 8611128
-1.0303248 -0.19834191 1.8430001 8809024
-1.0344086 -0.20049427 1.863 9071685
-1.0444057 -0.20383048 1.8940001 9139785
-1.0371906 -0.20383048 1.8940001 8416070
-1.0354134 -0.20490667 1.904 7759688
-1.02276 -0.20383048 1.8940001 8876110
-1.0155448 -0.20383048 1.8940001 10191477
-1.0083295 -0.20383048 1.8940001 10589280
-1.0011144 -0.20383048 1.8940001 11049574
-0.99389905 -0.20383048 1.8940001 11246445
-0.98668385 -0.20383048 1.8940001 11378542
-0.98464006 -0.20490667 1.904 11378803
-0.97738665 -0.20490667 1.904 11379312
-0.97013336 -0.20490667 1.904 11510125
-0.96288002 -0.20490667 1.904 11575914
-0.95562667 -0.20490667 1.904 11574374
-0.95385242 -0.20609048 1.9150001 11508325
-0.94655722 -0.20609048 1.9150001 11442794
-0.93926191 -0.20609048 1.9150001 11508588
-0.93196672 -0.20609048 1.9150001 11705709
-0.92467147 -0.20609048 1.9150001 11704934
-0.91737622 -0.20609048 1.9150001 11704166
-0.91008097 -0.20609048 1.9150001 11770216
-0.90278578 -0.20609048 1.9150001 11837029
-0.89549047 -0.20609048 1.9150001 11904363
-0.88819528 -0.20609048 1.9150001 12034670
-0.88090008 -0.20609048 1.9150001 12165491
-0.87360477 -0.20609048 1.9150001 12231797
-0.86630958 -0.20609048 1.9150001 12363125
-0.85901427 -0.20609048 1.9150001 12297584
-0.85171908 -0.20609048 1.9150001 12232296
-0.84442383 -0.20609048 1.9150001 12099940
-0.83712858 -0.20609048 1.9150001 12099428
-0.82983333 -0.20609048 1.9150001 12034407
-0.81781334 -0.20490667 1.904 11968873
-0.81055999 -0.20490667 1.904 12034927
-0.80794764 -0.20609048 1.9150001 12166254
-0.80065244 -0.20609048 1.9150001 12297583
-0.79335713 -0.20609048 1.9150001 12428395
-0.78606194 -0.20609048 1.9150001 12428911
nan nan nan 12428913
nan nan nan 12428911
nan nan nan 12363126
nan nan nan 12363128
nan nan nan 12297845
nan nan nan 12561511
nan nan nan 11311728
nan nan nan 6764330
-0.38145718 -0.10912572 1.0140001 4342087
-0.37647715 -0.10880286 1.011 5527635
-0.37152001 -0.10848 1.008 7033684
-0.36877429 -0.10880286 1.011 8676425
-0.36492285 -0.10880286 1.011 9530179
-0.36107144 -0.10880286 1.011 9727297
-0.35722002 -0.10880286 1.011 9660226
-0.35336858 -0.10880286 1.011 9660740
-0.34951714 -0.10880286 1.011 9596229
-0.34464002 -0.10848 1.008 9792333
-0.34181428 -0.10880286 1.011 9988681
-0.33796287 -0.10880286 1.011 9989959
-0.33411145 -0.10880286 1.011 9859149
-0.33026001 -0.10880286 1.011 9530702
-0.32640857 -0.10880286 1.011 9465166
-0.32255715 -0.10880286 1.011 9661770
-0.31965145 -0.10912572 1.0140001 9857603
-0.3157886 -0.10912572 1.0140001 9922372
-0.31192574 -0.10912572 1.0140001 9922889
-0.30806285 -0.10912572 1.0140001 9859403
-0.30330002 -0.10880286 1.011 9925190
-0.29944858 -0.10880286 1.011 10187073
-0.29559717 -0.10880286 1.011 10383422
-0.29174572 -0.10880286 1.011 10317888
-0.28789428 -0.10880286 1.011 10317889
-0.28404287 -0.10880286 1.011 10318405
-0.27936 -0.10848 1.008 10251586
-0.27634001 -0.10880286 1.011 10052419
-0.27248856 -0.10880286 1.011 9788993
-0.26863715 -0.10880286 1.011 9791295
-0.264 -0.10848 1.008 9857599
-0.26016 -0.10848 1.008 9856576
-0.25632 -0.10848 1.008 9857601
-0.25248 -0.10848 1.008 9921089
-0.24863999 -0.10848 1.008 10052419
-0.24431428 -0.10826476 1.006 10118464
-0.23976476 -0.10794191 1.003 10247742
-0.23664953 -0.10826476 1.006 10249027
-0.23281714 -0.10826476 1.006 10184253
-0.22898476 -0.10826476 1.006 9855805
-0.22448096 -0.10794191 1.003 9724736
-0.22132002 -0.10826476 1.006 10118464
-0.21748763 -0.10826476 1.006 10120264
-0.21365525 -0.10826476 1.006 10184262
-0.20982286 -0.10826476 1.006 10250313
-0.20599048 -0.10826476 1.006 10186056
-0.20215809 -0.10826476 1.006 10186822
-0.19832572 -0.10826476 1.006 10054983
-0.19391334 -0.10794191 1.003 9792841
-0.19009238 -0.10794191 1.003 9989957
-0.18627143 -0.10794191 1.003 10383429
-0.18245047 -0.10794191 1.003 10382913
-0.17916381 -0.10826476 1.006 10250044
-0.17533143 -0.10826476 1.006 10118723
-0.17149904 -0.10826476 1.006 10118979
-0.16766667 -0.10826476 1.006 10250310
-0.16334571 -0.10794191 1.003 10512456
-0.15952477 -0.10794191 1.003 10511940
-0.15616953 -0.10826476 1.006 10380094
-0.15233715 -0.10826476 1.006 10642755
-0.1480619 -0.10794191 1.003 10774598
-0.14467238 -0.10826476 1.006 10840386
-0.14084001 -0.10826476 1.006 10839105
-0.13700762 -0.10826476 1.006 10642751
-0.13317524 -0.10826476 1.006 10643282
-0.12895714 -0.10794191 1.003 10511695
-0.1251362 -0.10794191 1.003 10447421
-0.12131524 -0.10794191 1.003 10579016
-0.11749429 -0.10794191 1.003 10709847
-0.11401334 -0.10826476 1.006 10775889
-0.10985238 -0.10794191 1.003 10644293
-0.10603143 -0.10794191 1.003 10708555
-0.10221048 -0.10794191 1.003 10774353
-0.098389529 -0.10794191 1.003 10710351
-0.094568573 -0.10794191 1.003 10448716
-0.090476193 -0.10761905 1 10251858
-0.086666666 -0.10761905 1 10318671
-0.082857139 -0.10761905 1 10253394
-0.07904762 -0.10761905 1 10318422
-0.075463809 -0.10794191 1.003 10581842
-0.071857147 -0.10826476 1.006 10581586
-0.068024762 -0.10826476 1.006 10515278
-0.064192377 -0.10826476 1.006 10516048
-0.060180001 -0.10794191 1.003 10778451
-0.056190476 -0.10761905 1 11039302
-0.052538097 -0.10794191 1.003 10842460
-0.048717141 -0.10794191 1.003 10911063
-0.044896193 -0.10794191 1.003 11174739
-0.041075241 -0.10794191 1.003 11305301
-0.037142858 -0.10761905 1 11305557
-0.033433333 -0.10794191 1.003 11371354
-0.029612381 -0.10794191 1.003 11437405
-0.025791429 -0.10794191 1.003 11306844
-0.021904761 -0.10761905 1 11241824
-0.018095238 -0.10761905 1 11242597
-0.014328571 -0.10794191 1.003 11440232
-0.010476191 -0.10761905 1 11637869
-0.0066666668 -0.10761905 1 11704181
-0.0028571428 -0.10761905 1 11703417
0.00095238094 -0.10761905 1 11835519
0.0047619045 -0.10761905 1 11967614
0.008597143 -0.10794191 1.003 12165764
0.012418096 -0.10794191 1.003 12298378
0.016239049 -0.10794191 1.003 12364686
0.020059999 -0.10794191 1.003 12759439
0.023880953 -0.10794191 1.003 12956828
0.027784763 -0.10826476 1.006 13089458
0.031617146 -0.10826476 1.006 13552299
0.035343811 -0.10794191 1.003 14275003
0.039164763 -0.10794191 1.003 14799301
0.042985715 -0.10794191 1.003 14997448
0.046806667 -0.10794191 1.003 15196882
0.050627619 -0.10794191 1.003 15591134
0.054448571 -0.10794191 1.003 15659239
0.058443811 -0.10826476 1.006 15527148
0.062276188 -0.10826476 1.006 15261885
0.06610857 -0.10826476 1.006 14997192
0.069732383 -0.10794191 1.003 14671055
0.073773339 -0.10826476 1.006 14472388
0.077605717 -0.10826476 1.006 14141599
0.081438094 -0.10826476 1.006 13483424
0.085270479 -0.10826476 1.006 12892036
0.089102864 -0.10826476 1.006 12627342
0.092935234 -0.10826476 1.006 12298882
0.096767619 -0.10826476 1.006 11839118
0.1003 -0.10794191 1.003 11640191
0.10412095 -0.10794191 1.003 11508344
0.10794191 -0.10794191 1.003 11442552
0.11209714 -0.10826476 1.006 11442785
0.11592953 -0.10826476 1.006 11050347
0.11976191 -0.10826476 1.006 10978922
0.12322572 -0.10794191 1.003 11111780
0.12742667 -0.10826476 1.006 10980183
0.13125905 -0.10826476 1.006 10849124
0.13509144 -0.10826476 1.006 10520402
0.13892382 -0.10826476 1.006 10258001
0.14275619 -0.10826476 1.006 10192460
0.14658856 -0.10826476 1.006 10388555
0.15042095 -0.10826476 1.006 10518861
0.15425333 -0.10826476 1.006 10387023
0.15808572 -0.10826476 1.006 10583630
0.1619181 -0.10826476 1.006 10648651
0.16575049 -0.10826476 1.006 10714184
0.16958287 -0.10826476 1.006 10581837
0.17341524 -0.10826476 1.006 10120776
0.17724761 -0.10826476 1.006 10055246
0.18108 -0.10826476 1.006 10120785
0.18491238 -0.10826476 1.006 9989199
0.18874477 -0.10826476 1.006 10054219
0.19295999 -0.10848 1.008 10119242
0.19679999 -0.10848 1.008 10120264
0.20063999 -0.10848 1.008 10186314
0.20407429 -0.10826476 1.006 10251080
0.20728667 -0.10794191 1.003 10381894
0.21110763 -0.10794191 1.003 10382149
0.21492857 -0.10794191 1.003 10315590
0.21874954 -0.10794191 1.003 10186055
0.22257048 -0.10794191 1.003 10054724
0.22639142 -0.10794191 1.003 9923651
0.23090096 -0.10826476 1.006 9922114
0.23473334 -0.10826476 1.006 9920836
0.23856571 -0.10826476 1.006 9920328
0.2423981 -0.10826476 1.006 9988166
0.2462305 -0.10826476 1.006 9987909
0.25006285 -0.10826476 1.006 9985859
0.25389522 -0.10826476 1.006 9854016
0.25695905 -0.10794191 1.003 9790778
0.26078001 -0.10794191 1.003 9723186
0.26460093 -0.10794191 1.003 9655610
0.26842192 -0.10794191 1.003 9722427
0.27224287 -0.10794191 1.003 10050867
0.2760638 -0.10794191 1.003 10051400
0.27988476 -0.10794191 1.003 9330501
0.28370571 -0.10794191 1.003 9199941
0.28752667 -0.10794191 1.003 9528132
0.29134762 -0.10794191 1.003 9331016
0.29516858 -0.10794191 1.003 8806218
0.2989895 -0.10794191 1.003 8544328
0.30281049 -0.10794191 1.003 8873279
0.30663145 -0.10794191 1.003 9464132
0.31045237 -0.10794191 1.003 9791040
0.31427333 -0.10794191 1.003 9724226
0.31809428 -0.10794191 1.003 9791302
0.32191524 -0.10794191 1.003 9858119
0.32573619 -0.10794191 1.003 9792069
0.32955715 -0.10794191 1.003 9530182
0.33337808 -0.10794191 1.003 9465154
0.33719906 -0.10794191 1.003 9596227
0.34102002 -0.10794191 1.003 9726275
0.34484094 -0.10794191 1.003 9725505
0.3486619 -0.10794191 1.003 9594941
0.35248286 -0.10794191 1.003 9463864
0.35523808 -0.10761905 1 9136179
0.35904762 -0.10761905 1 7163714
0.3617686 -0.10729619 0.99700004 5457722
0.36556667 -0.10729619 0.99700004 4470846
0.37047619 -0.10761905 1 5983029
0.3742857 -0.10761905 1 10528124
0.37809524 -0.10761905 1 12426856
0.71148854 -0.20049427 1.863 12426600
0.71858573 -0.20049427 1.863 12558443
0.72568291 -0.20049427 1.863 12625517
0.73277998 -0.20049427 1.863 12691053
0.73987716 -0.20049427 1.863 12690028
0.74697429 -0.20049427 1.863 12689253
0.75407141 -0.20049427 1.863 12557155
0.76525438 -0.2015705 1.8730001 12491620
0.77238953 -0.2015705 1.8730001 12491621
0.77536291 -0.20049427 1.863 12427108
0.78245997 -0.20049427 1.863 12427365
0.78531909 -0.1994181 1.853 12493160
0.79237807 -0.1994181 1.853 12624491
0.79512286 -0.19834191 1.8430001 12557932
0.80214381 -0.19834191 1.8430001 12623211
0.80916482 -0.19834191 1.8430001 12689772
0.82061428 -0.1994181 1.853 12624746
0.82767332 -0.1994181 1.853 12559210
0.83923715 -0.20049427 1.863 12493417
0.84179145 -0.1994181 1.853 12558701
0.84885049 -0.1994181 1.853 12625000
0.85590953 -0.1994181 1.853 12757100
0.86296856 -0.1994181 1.853 12822129
0.8700276 -0.1994181 1.853 12755838
0.88182002 -0.20049427 1.863 12624763
0.88891715 -0.20049427 1.863 12558703
0.89601427 -0.20049427 1.863 12558961
0.90311146 -0.20049427 1.863 12493675
0.91020858 -0.20049427 1.863 12297064
0.91238195 -0.1994181 1.853 11900529
0.91447902 -0.19834191 1.8430001 9204300
0.91649997 -0.19726573 1.8330001 6376719
0.91391057 -0.19522096 1.8140001 6770207
0.9111762 -0.1931762 1.7950001 7492374
0.90880859 -0.19123906 1.7770001 7622686
0.91094106 -0.19027048 1.7680001 7687713
0.90833336 -0.18833335 1.7500001 7687450
0.91029429 -0.18736476 1.7410001 7687444
0.91218674 -0.18639621 1.7320001 7819029
0.91401047 -0.18542762 1.723 7884055
0.9072172 -0.18273714 1.6980001 7949346
0.91368574 -0.18273714 1.6980001 8080170
nan nan nan 8145691
nan nan nan 8342814
nan nan nan 8539156
nan nan nan 8473366
nan nan nan 8144916
nan nan nan 7817492
nan nan nan 7620628
nan nan nan 7555091
-1.0348438 -0.20213145 1.8140001 8676659
-1.0279334 -0.20213145 1.8140001 8545064
-1.0266515 -0.20324573 1.8240001 8480055
-1.0247344 -0.20424858 1.8330001 8611648
-1.0288563 -0.20647715 1.853 8940869
-1.0383401 -0.20982002 1.8830001 9138758
-1.0426667 -0.21216001 1.904 8616004
-1.0354134 -0.21216001 1.904 7691333
-1.02276 -0.21104571 1.8940001 8154186
-1.0155448 -0.21104571 1.8940001 9669968
-1.0024734 -0.20982002 1.8830001 10523226
-1.0011144 -0.21104571 1.8940001 10851937
-0.99914664 -0.21216001 1.904 11049065
-0.99189335 -0.21216001 1.904 11246705
-0.98464006 -0.21216001 1.904 11378296
-0.97738665 -0.21216001 1.904 11509364
-0.97573811 -0.21338572 1.9150001 11509613
-0.96844292 -0.21338572 1.9150001 11575148
-0.96114761 -0.21338572 1.9150001 11640171
-0.95385242 -0.21338572 1.9150001 11574120
-0.9515 -0.21450001 1.9250001 11508584
-0.94416672 -0.21450001 1.9250001 11508839
-0.93683338 -0.21450001 1.9250001 11575142
-0.92467147 -0.21338572 1.9150001 11640422
-0.91737622 -0.21338572 1.9150001 11704937
-0.91008097 -0.21338572 1.9150001 11769956
-0.90278578 -0.21338572 1.9150001 11836002
-0.89549047 -0.21338572 1.9150001 11903079
-0.88819528 -0.21338572 1.9150001 11969899
-0.88090008 -0.21338572 1.9150001 12100209
-0.87360477 -0.21338572 1.9150001 12296819
-0.86630958 -0.21338572 1.9150001 12297074
-0.85901427 -0.21338572 1.9150001 12231790
-0.85171908 -0.21338572 1.9150001 12232297
-0.84883332 -0.21450001 1.9250001 12231527
-0.83712858 -0.21338572 1.9150001 12099435
-0.82983333 -0.21338572 1.9150001 12034412
-0.82253814 -0.21338572 1.9150001 11706989
-0.81524289 -0.21338572 1.9150001 11707508
-0.80794764 -0.21338572 1.9150001 12034931
-0.80065244 -0.21338572 1.9150001 12232045
-0.79750007 -0.21450001 1.9250001 12428396
-0.78606194 -0.21338572 1.9150001 12493680
-0.77876669 -0.21338572 1.9150001 12363377
nan nan nan 12363378
nan nan nan 12363120
nan nan nan 12297587
nan nan nan 12363381
nan nan nan 12494964
nan nan nan 12036744
nan nan nan 7357493
-0.38145718 -0.11298858 1.0140001 4276294
-0.37759432 -0.11298858 1.0140001 5590345
-0.37373146 -0.11298858 1.0140001 6639436
-0.36986861 -0.11298858 1.0140001 8811616
-0.36600575 -0.11298858 1.0140001 9992776
-0.36214289 -0.11298858 1.0140001 9796422
-0.35828003 -0.11298858 1.0140001 9928010
-0.35441718 -0.11298858 1.0140001 9924433
-0.35055432 -0.11298858 1.0140001 9861966
-0.34669146 -0.11298858 1.0140001 9927502
-0.3428286 -0.11298858 1.0140001 9992523
-0.33896574 -0.11298858 1.0140001 9926220
-0.33510289 -0.11298858 1.0140001 9992270
-0.33124003 -0.11298858 1.0140001 9989708
-0.32737717 -0.11298858 1.0140001 9988941
-0.32351431 -0.11298858 1.0140001 9924942
-0.32059714 -0.11332286 1.0170001 10126150
-0.31672287 -0.11332286 1.0170001 10453057
-0.3128486 -0.11332286 1.0170001 10517572
-0.30897433 -0.11332286 1.0170001 10582091
-0.30419999 -0.11298858 1.0140001 10449738
-0.30033714 -0.11298858 1.0140001 10448455
-0.29647428 -0.11298858 1.0140001 10582597
-0.29261142 -0.11298858 1.0140001 10451525
-0.28874856 -0.11298858 1.0140001 10321221
-0.28404287 -0.11265428 1.011 10256708
-0.28019145 -0.11265428 1.011 10059589
-0.27634001 -0.11265428 1.011 10321225
-0.27248856 -0.11265428 1.011 10255409
-0.26863715 -0.11265428 1.011 10189891
-0.26478574 -0.11265428 1.011 10253120
-0.26093429 -0.11265428 1.011 10055742
-0.25708288 -0.11265428 1.011 9989951
-0.25248 -0.11232001 1.008 10054464
-0.24937999 -0.11265428 1.011 10057284
-0.24552859 -0.11265428 1.011 10254404
-0.24096 -0.11232001 1.008 10385989
-0.23712 -0.11232001 1.008 10124874
-0.23328 -0.11232001 1.008 10256709
-0.22944 -0.11232001 1.008 10190655
-0.2256 -0.11232001 1.008 9993776
-0.22176 -0.11232001 1.008 10386759
-0.21792001 -0.11232001 1.008 10320975
-0.21365525 -0.11209714 1.006 10321224
-0.21023999 -0.11232001 1.008 10516801
-0.20639999 -0.11232001 1.008 10319428
-0.20256001 -0.11232001 1.008 10385224
-0.19872001 -0.11232001 1.008 10516555
-0.19449334 -0.11209714 1.006 10516805
-0.19066097 -0.11209714 1.006 10582081
-0.18682858 -0.11209714 1.006 10581569
-0.18245047 -0.11176286 1.003 10384449
-0.17952 -0.11232001 1.008 10582082
-0.17568 -0.11232001 1.008 10581069
-0.17184001 -0.11232001 1.008 10382405
-0.16800001 -0.11232001 1.008 10382661
-0.16383429 -0.11209714 1.006 10513730
-0.16000192 -0.11209714 1.006 10579267
-0.15616953 -0.11209714 1.006 10580037
-0.15233715 -0.11209714 1.006 10579008
-0.1488 -0.11232001 1.008 10578241
-0.14539143 -0.11265428 1.011 10382148
-0.14154001 -0.11265428 1.011 10120517
-0.13728 -0.11232001 1.008 9792331
-0.13344 -0.11232001 1.008 9595719
-0.12934287 -0.11209714 1.006 9728840
-0.1251362 -0.11176286 1.003 9729605
-0.12131524 -0.11176286 1.003 9663561
-0.11749429 -0.11176286 1.003 9924679
-0.11401334 -0.11209714 1.006 10054987
-0.11018095 -0.11209714 1.006 10055746
-0.10603143 -0.11176286 1.003 9989182
-0.10221048 -0.11176286 1.003 9857093
-0.098683812 -0.11209714 1.006 9661003
-0.094568573 -0.11176286 1.003 9595211
-0.090747625 -0.11176286 1.003 9597260
-0.086926669 -0.11176286 1.003 9728844
-0.082857139 -0.11142857 1 9925452
-0.07904762 -0.11142857 1 9925456
-0.075463809 -0.11176286 1.003 9925714
-0.071857147 -0.11209714 1.006 10056788
-0.068159997 -0.11232001 1.008 10121040
-0.064320005 -0.11232001 1.008 10054479
-0.060180001 -0.11176286 1.003 9990737
-0.056359049 -0.11176286 1.003 9991249
-0.052538097 -0.11176286 1.003 10122067
-0.048717141 -0.11176286 1.003 10450003
-0.045030478 -0.11209714 1.006 10779476
-0.041075241 -0.11176286 1.003 10645331
-0.037254285 -0.11176286 1.003 10648920
-0.033433333 -0.11176286 1.003 10843991
-0.029612381 -0.11176286 1.003 10778713
-0.025791429 -0.11176286 1.003 10647393
-0.021970477 -0.11176286 1.003 10583142
-0.018149525 -0.11176286 1.003 10716518
-0.014371429 -0.11209714 1.006 10913896
-0.010507619 -0.11176286 1.003 11176816
-0.0066866665 -0.11176286 1.003 11373173
-0.0028657143 -0.11176286 1.003 11504764
0.00095523812 -0.11176286 1.003 11702911
0.0047904765 -0.11209714 1.006 11769215
0.0086228577 -0.11209714 1.006 11901060
0.012455239 -0.11209714 1.006 11902348
0.016319999 -0.11232001 1.008 12035731
0.02012 -0.11209714 1.006 12430472
0.023952382 -0.11209714 1.006 12562325
0.027784763 -0.11209714 1.006 12695201
0.031617146 -0.11209714 1.006 13353385
0.035449523 -0.11209714 1.006 14205620
0.039281905 -0.11209714 1.006 14732472
0.043114286 -0.11209714 1.006 14933468
0.046946667 -0.11209714 1.006 15131359
0.050779048 -0.11209714 1.006 15526629
0.05461143 -0.11209714 1.006 15723238
0.058443811 -0.11209714 1.006 15590618
0.062276188 -0.11209714 1.006 15392448
0.066239998 -0.11232001 1.008 15129284
0.069940954 -0.11209714 1.006 14929343
0.073920004 -0.11232001 1.008 14533798
0.077605717 -0.11209714 1.006 14007724
0.081438094 -0.11209714 1.006 13416096
0.085270479 -0.11209714 1.006 13021332
0.089102864 -0.11209714 1.006 12889993
0.092935234 -0.11209714 1.006 12493959
0.096767619 -0.11209714 1.006 11965822
0.1006 -0.11209714 1.006 11769979
0.10443239 -0.11209714 1.006 11573366
0.10826476 -0.11209714 1.006 11375981
0.11209714 -0.11209714 1.006 11244391
0.11592953 -0.11209714 1.006 11048550
0.11976191 -0.11209714 1.006 11043946
0.12359428 -0.11209714 1.006 11242599
0.12742667 -0.11209714 1.006 11308132
0.13125905 -0.11209714 1.006 11241571
0.13536 -0.11232001 1.008 11176032
0.1392 -0.11232001 1.008 11241565
0.14304 -0.11232001 1.008 11109981
0.14658856 -0.11209714 1.006 10978644
0.15072 -0.11232001 1.008 10912599
0.15425333 -0.11209714 1.006 10912092
0.1584 -0.11232001 1.008 11108437
0.16224 -0.11232001 1.008 11239251
0.16608 -0.11232001 1.008 11239253
0.16992 -0.11232001 1.008 11240010
0.17376 -0.11232001 1.008 11042891
0.1776 -0.11232001 1.008 10648393
0.18144001 -0.11232001 1.008 10449742
0.18528001 -0.11232001 1.008 10253391
0.18911999 -0.11232001 1.008 10122830
0.19295999 -0.11232001 1.008 10124874
0.19679999 -0.11232001 1.008 10320455
0.20063999 -0.11232001 1.008 10451529
0.20407429 -0.11209714 1.006 10517064
0.20790666 -0.11209714 1.006 10582087
0.21173905 -0.11209714 1.006 10647367
0.21557143 -0.11209714 1.006 10582086
0.21940382 -0.11209714 1.006 10451018
0.22367999 -0.11232001 1.008 10319430
0.22706859 -0.11209714 1.006 10187843
0.23090096 -0.11209714 1.006 10121030
0.2352 -0.11232001 1.008 10186056
0.23904 -0.11232001 1.008 10122314
0.2423981 -0.11209714 1.006 9991240
0.2462305 -0.11209714 1.006 9991749
0.25006285 -0.11209714 1.006 9926982
0.25389522 -0.11209714 1.006 9795904
0.25772762 -0.11209714 1.006 9860926
0.26155999 -0.11209714 1.006 9991742
0.26539239 -0.11209714 1.006 10123306
0.26922476 -0.11209714 1.006 10189868
0.27305716 -0.11209714 1.006 10123581
0.27688953 -0.11209714 1.006 9991232
0.28072193 -0.11209714 1.006 9532214
0.28370571 -0.11176286 1.003 9465927
0.28752667 -0.11176286 1.003 9727052
0.29134762 -0.11176286 1.003 9662801
0.29516858 -0.11176286 1.003 9469755
0.29988381 -0.11209714 1.006 9270071
0.30371618 -0.11209714 1.006 9202238
0.30754858 -0.11209714 1.006 9596220
0.31138095 -0.11209714 1.006 10120245
0.31521332 -0.11209714 1.006 9987902
0.31809428 -0.11176286 1.003 9855807
0.32191524 -0.11176286 1.003 9856063
0.32573619 -0.11176286 1.003 9791560
0.33054286 -0.11209714 1.006 9660491
0.33437526 -0.11209714 1.006 9594700
0.33820763 -0.11209714 1.006 9725250
0.34204003 -0.11209714 1.006 9921599
0.34484094 -0.11176286 1.003 9922109
0.3486619 -0.11176286 1.003 9725754
0.35353717 -0.11209714 1.006 9726011
0.35736951 -0.11209714 1.006 8675896
0.36012477 -0.11176286 1.003 6706748
0.36394572 -0.11176286 1.003 5589044
0.36666667 -0.11142857 1 3944996
0.37047619 -0.11142857 1 6846037
0.37540859 -0.11176286 1.003 11706986
0.70817244 -0.20870574 1.8730001 12361317
0.71530765 -0.20870574 1.8730001 12426853
0.72244292 -0.20870574 1.8730001 12492650
0.72957814 -0.20870574 1.8730001 12559468
0.73671341 -0.20870574 1.8730001 12559467
0.74384862 -0.20870574 1.8730001 12558699
0.75098389 -0.20870574 1.8730001 12623977
0.75811911 -0.20870574 1.8730001 12557668
0.76525438 -0.20870574 1.8730001 12492136
0.77238953 -0.20870574 1.8730001 12427110
0.7795248 -0.20870574 1.8730001 12361832
0.78245997 -0.20759143 1.863 12427366
0.78531909 -0.20647715 1.853 12558188
0.79237807 -0.20647715 1.853 12623210
0.79943711 -0.20647715 1.853 12556394
0.80214381 -0.20536287 1.8430001 12556652
0.81355524 -0.20647715 1.853 12689263
0.82061428 -0.20647715 1.853 12624497
0.83214003 -0.20759143 1.863 12559211
0.83923715 -0.20759143 1.863 12624495
0.84179145 -0.20647715 1.853 12755821
0.84885049 -0.20647715 1.853 12755819
0.85590953 -0.20647715 1.853 12756585
0.86762571 -0.20759143 1.863 12756080
0.8747229 -0.20759143 1.863 12690043
0.88182002 -0.20759143 1.863 12557688
0.88891715 -0.20759143 1.863 12426861
0.89120477 -0.20647715 1.853 12493165
0.90311146 -0.20759143 1.863 12428660
0.91020858 -0.20759143 1.863 12362115
0.91730571 -0.20759143 1.863 11702595
0.91447902 -0.20536287 1.8430001 7881250
0.912 -0.20324573 1.8240001 5980975
0.90887249 -0.20101716 1.8040001 7491618
0.9111762 -0.20001429 1.7950001 7687968
0.90880859 -0.19800858 1.7770001 7753507
0.91557813 -0.19800858 1.7770001 7752992
0.91300476 -0.19600287 1.7590001 7818267
0.91029429 -0.19399714 1.7410001 7818260
0.91218674 -0.1929943 1.7320001 7818517
0.91401047 -0.19199143 1.723 7753242
0.91149145 -0.19009714 1.7060001 7818792
0.90938097 -0.18831429 1.6900001 7883818
nan nan nan 7948832
nan nan nan 8146200
nan nan nan 8539157
nan nan nan 8604439
nan nan nan 8276255
nan nan nan 7817236
nan nan nan 7555347
nan nan nan 7555090
-1.0291392 -0.20788953 1.8040001 8808001
-1.0222667 -0.20788953 1.8040001 8480061
-1.0317171 -0.21123144 1.8330001 8348989
-1.0303248 -0.21238381 1.8430001 8414015
-1.0288563 -0.2135362 1.853 8744255
-1.0328257 -0.21584097 1.8730001 8942908
-1.0371906 -0.21826096 1.8940001 8942913
-1.0354134 -0.21941334 1.904 8351048
-1.02816 -0.21941334 1.904 7956813
-1.0209067 -0.21941334 1.904 9208658
-1.0083295 -0.21826096 1.8940001 10586979
-1.0064 -0.21941334 1.904 10720099
-1.0049191 -0.22068097 1.9150001 10853220
-0.99189335 -0.21941334 1.904 11050602
-0.99032867 -0.22068097 1.9150001 11313006
-0.98303336 -0.22068097 1.9150001 11443824
-0.97573811 -0.22068097 1.9150001 11574900
-0.96844292 -0.22068097 1.9150001 11640949
-0.96616668 -0.22183333 1.9250001 11706224
-0.95883334 -0.22183333 1.9250001 11575145
-0.95693719 -0.22310096 1.9360001 11443561
-0.94416672 -0.22183333 1.9250001 11378018
-0.93683338 -0.22183333 1.9250001 11509352
-0.92950004 -0.22183333 1.9250001 11575144
-0.91737622 -0.22068097 1.9150001 11705702
-0.91483331 -0.22183333 1.9250001 11705188
-0.90750003 -0.22183333 1.9250001 11705445
-0.90016669 -0.22183333 1.9250001 11836774
-0.88819528 -0.22068097 1.9150001 11903339
-0.88090008 -0.22068097 1.9150001 12034673
-0.87816668 -0.22183333 1.9250001 12231282
-0.8708334 -0.22183333 1.9250001 12231534
-0.86843437 -0.22310096 1.9360001 12231533
-0.86105907 -0.22310096 1.9360001 12232041
-0.85368383 -0.22310096 1.9360001 12231529
-0.84630859 -0.22310096 1.9360001 12099948
-0.83416671 -0.22183333 1.9250001 12034416
-0.82683337 -0.22183333 1.9250001 11838831
-0.81950003 -0.22183333 1.9250001 11904111
-0.81216669 -0.22183333 1.9250001 12166255
-0.80943245 -0.22310096 1.9360001 12297582
-0.79750007 -0.22183333 1.9250001 12361840
-0.79016668 -0.22183333 1.9250001 12362095
-0.78283334 -0.22183333 1.9250001 12297586
nan nan nan 12297583
nan nan nan 12297581
nan nan nan 12363120
nan nan nan 12493682
nan nan nan 12493935
nan nan nan 12627571
nan nan nan 8478492
nan nan nan 4341309
-0.37759432 -0.11685143 1.0140001 5128265
-0.37373146 -0.11685143 1.0140001 6246213
-0.36986861 -0.11685143 1.0140001 8410158
-0.36817148 -0.11754287 1.0200001 9920575
-0.36321431 -0.11719715 1.0170001 9725762
-0.35934004 -0.11719715 1.0170001 10053955
-0.3565143 -0.11754287 1.0200001 10120769
-0.35262862 -0.11754287 1.0200001 10121796
-0.34669146 -0.11685143 1.0140001 10120516
-0.34485719 -0.11754287 1.0200001 10052931
-0.33996862 -0.11719715 1.0170001 10052929
-0.33510289 -0.11685143 1.0140001 10052669
-0.33124003 -0.11685143 1.0140001 10117186
-0.32737717 -0.11685143 1.0140001 10118468
-0.32351431 -0.11685143 1.0140001 9924933
-0.31965145 -0.11685143 1.0140001 9986881
-0.31672287 -0.11719715 1.0170001 9985600
-0.3128486 -0.11719715 1.0170001 9987143
-0.30897433 -0.11719715 1.0170001 10380104
-0.30509999 -0.11719715 1.0170001 10379846
-0.30033714 -0.11685143 1.0140001 10185543
-0.29647428 -0.11685143 1.0140001 10053199
-0.29261142 -0.11685143 1.0140001 9923916
-0.28789428 -0.11650571 1.011 9857862
-0.28404287 -0.11650571 1.011 9856318
-0.28019145 -0.11650571 1.011 9791812
-0.27634001 -0.11650571 1.011 10120771
-0.27329713 -0.11685143 1.0140001 10252100
-0.2694343 -0.11685143 1.0140001 10250813
-0.26557145 -0.11685143 1.0140001 10250044
-0.26170859 -0.11685143 1.0140001 10053438
-0.25708288 -0.11650571 1.011 9988414
-0.25323144 -0.11650571 1.011 9987906
-0.25012001 -0.11685143 1.0140001 10054719
-0.24625714 -0.11685143 1.0140001 9990467
-0.24167715 -0.11650571 1.011 9923137
-0.23782572 -0.11650571 1.011 9528895
-0.23397429 -0.11650571 1.011 9661006
-0.23012286 -0.11650571 1.011 10054984
-0.22627144 -0.11650571 1.011 9858119
-0.22242001 -0.11650571 1.011 9858375
-0.21856858 -0.11650571 1.011 9792839
-0.21471715 -0.11650571 1.011 9728072
-0.21086572 -0.11650571 1.011 9728576
-0.20639999 -0.11616 1.008 9597507
-0.20316286 -0.11650571 1.011 9728585
-0.19931144 -0.11650571 1.011 10056796
-0.19546001 -0.11650571 1.011 10385737
-0.19160858 -0.11650571 1.011 10451010
-0.18775715 -0.11650571 1.011 10254654
-0.18336 -0.11616 1.008 10123070
-0.17952 -0.11616 1.008 10253119
-0.17568 -0.11616 1.008 10383682
-0.17184001 -0.11616 1.008 10318922
-0.16850001 -0.11650571 1.011 10253385
-0.16464858 -0.11650571 1.011 10252616
-0.16032 -0.11616 1.008 10382921
-0.15694571 -0.11650571 1.011 10514762
-0.15309429 -0.11650571 1.011 10449732
-0.14924286 -0.11650571 1.011 10515009
-0.14539143 -0.11650571 1.011 10777155
-0.14154001 -0.11650571 1.011 10580550
-0.13768856 -0.11650571 1.011 10122061
-0.13383715 -0.11650571 1.011 9859911
-0.1296 -0.11616 1.008 9859908
-0.12551048 -0.11592953 1.006 9924167
-0.1216781 -0.11592953 1.006 9858892
-0.11784572 -0.11592953 1.006 9859406
-0.11401334 -0.11592953 1.006 9862225
-0.11018095 -0.11592953 1.006 9925708
-0.10634858 -0.11592953 1.006 10056518
-0.1025162 -0.11592953 1.006 10054471
-0.098683812 -0.11592953 1.006 9924681
-0.094851427 -0.11592953 1.006 9794122
-0.091019057 -0.11592953 1.006 9729095
-0.087186672 -0.11592953 1.006 9795403
-0.083105713 -0.11558381 1.003 9990733
-0.079521902 -0.11592953 1.006 10122064
-0.075840004 -0.11616 1.008 10187858
-0.071999997 -0.11616 1.008 10190423
-0.068362862 -0.11650571 1.011 10191697
-0.064320005 -0.11616 1.008 10191946
-0.060480002 -0.11616 1.008 10191182
-0.056639999 -0.11616 1.008 10321745
-0.052800003 -0.11616 1.008 10714961
-0.04896 -0.11616 1.008 10913620
-0.045030478 -0.11592953 1.006 10914139
-0.041198097 -0.11592953 1.006 10651742
-0.037365716 -0.11592953 1.006 10652003
-0.033433333 -0.11558381 1.003 11045467
-0.029700954 -0.11592953 1.006 10911068
-0.025868572 -0.11592953 1.006 10912608
-0.022036191 -0.11592953 1.006 11177562
-0.01820381 -0.11592953 1.006 11439709
-0.014442858 -0.11650571 1.011 11373675
-0.010539047 -0.11592953 1.006 11309166
-0.0067066667 -0.11592953 1.006 11441520
-0.0028742859 -0.11592953 1.006 11572851
0.00095809525 -0.11592953 1.006 11703674
0.0047904765 -0.11592953 1.006 11901053
0.0086228577 -0.11592953 1.006 12098946
0.012455239 -0.11592953 1.006 12165001
0.016319999 -0.11616 1.008 12363150
0.02012 -0.11592953 1.006 12758421
0.023952382 -0.11592953 1.006 12890784
0.02784 -0.11616 1.008 13022376
0.031617146 -0.11592953 1.006 13353367
0.035449523 -0.11592953 1.006 14010024
0.039281905 -0.11592953 1.006 14471362
0.043114286 -0.11592953 1.006 14669263
0.047040001 -0.11616 1.008 14998481
0.05088 -0.11616 1.008 15461092
0.05461143 -0.11592953 1.006 15460307
0.058560003 -0.11616 1.008 15261650
0.062400002 -0.11616 1.008 14997189
0.066437148 -0.11650571 1.011 14670809
0.070497148 -0.11685143 1.0140001 14799054
0.074139997 -0.11650571 1.011 14012610
0.077760004 -0.11616 1.008 12959417
0.081600003 -0.11616 1.008 12758676
0.085270479 -0.11592953 1.006 12627608
0.089280002 -0.11616 1.008 12561806
0.093397141 -0.11650571 1.011 12296071
0.097248569 -0.11650571 1.011 11900022
0.10110001 -0.11650571 1.011 11834481
0.10495143 -0.11650571 1.011 11638128
0.10848 -0.11616 1.008 11308402
0.11265428 -0.11650571 1.011 11044975
0.11650571 -0.11650571 1.011 10978923
0.12 -0.11616 1.008 10912359
0.12384 -0.11616 1.008 10847849
0.12767999 -0.11616 1.008 10845533
0.13191143 -0.11650571 1.011 10911071
0.13536 -0.11616 1.008 10911328
0.13961428 -0.11650571 1.011 10845025
0.14304 -0.11616 1.008 10646359
0.14688 -0.11616 1.008 10514773
0.15072 -0.11616 1.008 10318169
0.15456001 -0.11616 1.008 10384217
0.15887143 -0.11650571 1.011 10712912
0.16224 -0.11616 1.008 10712655
0.16657428 -0.11650571 1.011 10252372
0.17042571 -0.11650571 1.011 10251840
0.17427716 -0.11650571 1.011 10449477
0.17865716 -0.11685143 1.0140001 10449737
0.18198001 -0.11650571 1.011 10449481
0.18583143 -0.11650571 1.011 10185292
0.18968286 -0.11650571 1.011 9923661
0.1935343 -0.11650571 1.011 10055755
0.19738571 -0.11650571 1.011 10252870
0.20123716 -0.11650571 1.011 10450246
0.20448001 -0.11616 1.008 10514756
0.20832001 -0.11616 1.008 10514246
0.21216001 -0.11616 1.008 10448966
0.21664286 -0.11650571 1.011 10448966
0.2204943 -0.11650571 1.011 10449476
0.22434571 -0.11650571 1.011 10318405
0.22752 -0.11616 1.008 10252099
0.23136 -0.11616 1.008 10251586
0.2359 -0.11650571 1.011 10186052
0.23904 -0.11616 1.008 9988677
0.24288 -0.11616 1.008 9792837
0.24672 -0.11616 1.008 9794123
0.25056002 -0.11616 1.008 9795657
0.25515714 -0.11650571 1.011 9861443
0.25900859 -0.11650571 1.011 9925697
0.26207998 -0.11616 1.008 10056770
0.26592001 -0.11616 1.008 10318665
0.26976001 -0.11616 1.008 10448451
0.27359998 -0.11616 1.008 10250810
0.27688953 -0.11592953 1.006 10119232
0.28072193 -0.11592953 1.006 10119750
0.2845543 -0.11592953 1.006 10120010
0.28838667 -0.11592953 1.006 9988681
0.29221907 -0.11592953 1.006 9990463
0.29605144 -0.11592953 1.006 10188858
0.29988381 -0.11592953 1.006 10320185
0.30371618 -0.11592953 1.006 10319935
0.30754858 -0.11592953 1.006 10252860
0.31138095 -0.11592953 1.006 10317118
0.31521332 -0.11592953 1.006 10187071
0.31904572 -0.11592953 1.006 10122810
0.32287809 -0.11592953 1.006 10187326
0.32671049 -0.11592953 1.006 10252104
0.3312 -0.11616 1.008 10055758
0.33504 -0.11616 1.008 9925458
0.33820763 -0.11592953 1.006 10121026
0.34204003 -0.11592953 1.006 10250814
0.3458724 -0.11592953 1.006 10120770
0.3504 -0.11616 1.008 9990203
0.35424 -0.11616 1.008 10186292
0.35736951 -0.11592953 1.006 8543035
0.36120191 -0.11592953 1.006 6179643
0.36503428 -0.11592953 1.006 5457980
0.36886668 -0.11592953 1.006 3810845
0.37269905 -0.11592953 1.006 7705450
0.70478004 -0.21699335 1.8830001 12558695
0.70817244 -0.21584097 1.8730001 12361576
0.71530765 -0.21584097 1.8730001 12427367
0.72244292 -0.21584097 1.8730001 12492650
0.72957814 -0.21584097 1.8730001 12624233
0.73671341 -0.21584097 1.8730001 12624230
0.74384862 -0.21584097 1.8730001 12492650
0.75098389 -0.21584097 1.8730001 12493162
0.75811911 -0.21584097 1.8730001 12492387
0.76525438 -0.21584097 1.8730001 12426857
0.77238953 -0.21584097 1.8730001 12361322
0.7795248 -0.21584097 1.8730001 12426344
0.78245997 -0.21468857 1.863 12426344
0.79379529 -0.21584097 1.8730001 12557673
0.79665428 -0.21468857 1.863 12557671
0.79943711 -0.2135362 1.853 12491881
0.80214381 -0.21238381 1.8430001 12623470
0.81355524 -0.2135362 1.853 12690042
0.8250429 -0.21468857 1.863 12690553
0.83214003 -0.21468857 1.863 12624754
0.83923715 -0.21468857 1.863 12624493
0.84633428 -0.21468857 1.863 12756594
0.85343146 -0.21468857 1.863 12755823
0.86052853 -0.21468857 1.863 12756335
0.87228292 -0.21584097 1.8730001 12690542
0.87941819 -0.21584097 1.8730001 12624496
0.88182002 -0.21468857 1.863 12492660
0.89368862 -0.21584097 1.8730001 12426357
0.89120477 -0.2135362 1.853 12427376
0.90311146 -0.21468857 1.863 12296555
0.90532291 -0.2135362 1.853 12230511
0.90745813 -0.21238381 1.8430001 10781017
0.91447902 -0.21238381 1.8430001 7612942
0.912 -0.21019429 1.8240001 6703907
0.91391057 -0.20904192 1.8140001 7556893
0.9111762 -0.20685239 1.7950001 7884580
0.90880859 -0.20477811 1.7770001 7949601
0.91557813 -0.20477811 1.7770001 7883806
0.91300476 -0.20270382 1.7590001 7948822
0.91029429 -0.20062953 1.7410001 7949077
0.90744668 -0.19855523 1.723 7883797
0.90976667 -0.19763333 1.715 7818773
0.91149145 -0.19659621 1.7060001 7752984
0.91368574 -0.19567429 1.6980001 7752985
nan nan nan 7752982
nan nan nan 7950108
nan nan nan 8278051
nan nan nan 8408098
nan nan nan 8145963
nan nan nan 7687203
nan nan nan 7556119
nan nan nan 7620371
-1.0348438 -0.2159524 1.8140001 9005382
-1.0279334 -0.2159524 1.8140001 8742719
-1.0266515 -0.21714287 1.8240001 8610881
-1.0303248 -0.21940476 1.8430001 8609599
-1.0344086 -0.22178571 1.863 8677185
-1.0328257 -0.22297621 1.8730001 9007171
-1.0371906 -0.22547619 1.8940001 9007942
-1.0354134 -0.22666666 1.904 8549190
-1.0341001 -0.2279762 1.9150001 7824710
-1.0268048 -0.2279762 1.9150001 8480564
-1.0136534 -0.22666666 1.904 10186838
-1.0122143 -0.2279762 1.9150001 10785624
-1.0101666 -0.22916667 1.9250001 10721373
-1.0028334 -0.22916667 1.9250001 10984289
-0.99550003 -0.22916667 1.9250001 11247470
-0.98816675 -0.22916667 1.9250001 11444587
-0.98083335 -0.22916667 1.9250001 11575151
-0.97350001 -0.22916667 1.9250001 11640431
-0.96616668 -0.22916667 1.9250001 11705966
-0.95883334 -0.22916667 1.9250001 11575663
-0.9515 -0.22916667 1.9250001 11379051
-0.93926191 -0.2279762 1.9150001 11378504
-0.93683338 -0.22916667 1.9250001 11574640
-0.92950004 -0.22916667 1.9250001 11771250
-0.91737622 -0.2279762 1.9150001 11837033
-0.92006099 -0.2304762 1.9360001 11771234
-0.90750003 -0.22916667 1.9250001 11770980
-0.90531051 -0.2304762 1.9360001 11770983
-0.89283335 -0.22916667 1.9250001 11837550
-0.88550001 -0.22916667 1.9250001 11968883
-0.87816668 -0.22916667 1.9250001 12034676
-0.8708334 -0.22916667 1.9250001 12100463
-0.86843437 -0.2304762 1.9360001 12166509
-0.86105907 -0.2304762 1.9360001 12232043
-0.85368383 -0.2304762 1.9360001 12100713
-0.84630859 -0.2304762 1.9360001 12034153
-0.83893341 -0.2304762 1.9360001 12099949
-0.83155811 -0.2304762 1.9360001 12231534
-0.82418287 -0.2304762 1.9360001 12297584
-0.81680769 -0.2304762 1.9360001 12232048
-0.80943245 -0.2304762 1.9360001 12232306
-0.80205715 -0.2304762 1.9360001 12232303
-0.79016668 -0.22916667 1.9250001 12297326
-0.78730673 -0.2304762 1.9360001 12362868
nan nan nan 12362869
nan nan nan 12362867
nan nan nan 12428405
