# .PCD v0.7 - Point Cloud Data file format
VERSION 0.7
FIELDS x y z rgba
SIZE 4 4 4 4
TYPE F F F U
COUNT 1 1 1 1
WIDTH 1219
HEIGHT 1
VIEWPOINT 0 0 0 1 0 0 0
POINTS 1219
DATA ascii
-0.37692666 -0.39531335 1.3790001 8286020
-0.37167335 -0.39531335 1.3790001 8218936
-0.36642003 -0.39531335 1.3790001 8217112
-0.36116666 -0.39531335 1.3790001 7295508
-0.35591334 -0.39531335 1.3790001 6440752
-0.35345718 -0.39846671 1.3900001 6441771
-0.35116762 -0.40190667 1.4020001 6376222
-0.34434667 -0.40018669 1.396 6244900
-0.33902857 -0.40018669 1.396 6113064
-0.3322762 -0.39846671 1.3900001 5981234
-0.3258048 -0.39703336 1.3850001 5653015
-0.32168573 -0.39846671 1.3900001 5324313
-0.31639048 -0.39846671 1.3900001 5060896
-0.31109527 -0.39846671 1.3900001 4733213
-0.30580002 -0.39846671 1.3900001 4536343
-0.30180189 -0.40018669 1.396 4470544
-0.29648381 -0.40018669 1.396 4470032
-0.29116571 -0.40018669 1.396 4403732
-0.28584763 -0.40018669 1.396 4272654
-0.28052953 -0.40018669 1.396 4207381
-0.27521145 -0.40018669 1.396 4273173
-0.26989332 -0.40018669 1.396 4338464
-0.26457524 -0.40018669 1.396 4338202
-0.25925714 -0.40018669 1.396 4337420
-0.25393906 -0.40018669 1.396 4140566
-0.24862096 -0.40018669 1.396 4009232
-0.24330285 -0.40018669 1.396 3943693
-0.23696192 -0.39846671 1.3900001 3943700
-0.23166668 -0.39846671 1.3900001 3943703
-0.1991743 -0.35059336 1.223 3813132
-0.19387905 -0.34944668 1.2190001 3756416
-0.18923526 -0.34944668 1.2190001 3890056
-0.18322857 -0.3468667 1.21 4022664
-0.1767 -0.34314001 1.197 4153226
-0.17156476 -0.34199333 1.1930001 4284816
-0.16646001 -0.34084666 1.189 4482720
-0.16138572 -0.33970001 1.1850001 4550309
-0.15634191 -0.33855337 1.1810001 4418468
-0.15132858 -0.33740667 1.177 4419238
-0.14684477 -0.33740667 1.177 4485547
-0.14236096 -0.33740667 1.177 4553391
-0.13787715 -0.33740667 1.177 4683953
-0.13339333 -0.33740667 1.177 4813483
-0.12890953 -0.33740667 1.177 4813727
-0.12442572 -0.33740667 1.177 4745366
-0.11994191 -0.33740667 1.177 4613779
-0.11545809 -0.33740667 1.177 4481427
-0.11059715 -0.33626002 1.1730001 4284306
-0.10612858 -0.33626002 1.1730001 4153238
-0.10166001 -0.33626002 1.1730001 4219033
-0.097191438 -0.33626002 1.1730001 4154018
-0.092406668 -0.33511335 1.169 4023720
-0.088254295 -0.33626002 1.1730001 3958950
-0.08378572 -0.33626002 1.1730001 3958692
-0.079587616 -0.33740667 1.177 3761827
-0.075359054 -0.33855337 1.1810001 3564707
-0.070860006 -0.33855337 1.1810001 3499425
-0.066360958 -0.33855337 1.1810001 2975905
-0.061861914 -0.33855337 1.1810001 2909328
-0.057751428 -0.34084666 1.189 3165816
-0.053580001 -0.34314001 1.197 2834019
-0.049388576 -0.34571999 1.2060001 2505565
-0.044794288 -0.34571999 1.2060001 2310238
-0.040333334 -0.3468667 1.21 2112090
-0.035989527 -0.34944668 1.2190001 1781840
-0.031551428 -0.35174003 1.2270001 1518399
-0.027074287 -0.35432002 1.2360001 1450802
-0.022365715 -0.35432002 1.2360001 1449512
-0.017657144 -0.35432002 1.2360001 1449508
-0.012906668 -0.35317335 1.2320001 1450806
-0.0081533343 -0.35059336 1.223 1714750
-0.0034685717 -0.34801337 1.2140001 2042953
0.0011561905 -0.34801337 1.2140001 2240332
0.0057428577 -0.34571999 1.2060001 2241611
0.010302857 -0.34457332 1.202 2111313
0.014820001 -0.34314001 1.197 2111311
0.019380001 -0.34314001 1.197 2175822
0.023860002 -0.34199333 1.1930001 2242389
0.028404765 -0.34199333 1.1930001 2375018
0.032728571 -0.33970001 1.1850001 2573183
0.03724286 -0.33970001 1.1850001 2837134
0.041616194 -0.33855337 1.1810001 3231637
0.045959052 -0.33740667 1.177 3561873
0.05044286 -0.33740667 1.177 3562898
0.054740004 -0.33626002 1.1730001 3498135
0.059006665 -0.33511335 1.169 3629212
0.06346 -0.33511335 1.169 3958181
0.068145722 -0.33626002 1.1730001 4090542
0.07236667 -0.33511335 1.169 4156853
0.076820001 -0.33511335 1.169 4222897
0.08127334 -0.33511335 1.169 4222379
0.085726663 -0.33511335 1.169 4353190
0.090488575 -0.33626002 1.1730001 4549290
0.094957151 -0.33626002 1.1730001 4746415
0.099764764 -0.33740667 1.177 4943791
0.10460287 -0.33855337 1.1810001 5141417
0.10910191 -0.33855337 1.1810001 5208490
0.11360096 -0.33855337 1.1810001 5340080
0.1185 -0.33970001 1.1850001 5340853
0.12342952 -0.34084666 1.189 5341877
0.12838952 -0.34199333 1.1930001 5473471
0.13393715 -0.34457332 1.202 5541334
0.13943809 -0.3468667 1.21 5470922
0.14511906 -0.34944668 1.2190001 5406648
0.15136001 -0.35317335 1.2320001 4671615
0.1577 -0.35689998 1.245 4337717
0.16296476 -0.35804671 1.2490001 4732717
0.18894 -0.40334001 1.4070001 4666907
0.19360954 -0.40190667 1.4020001 4469543
0.17723906 -0.35804671 1.2490001 4665910
0.18199715 -0.35804671 1.2490001 5256773
0.18675525 -0.35804671 1.2490001 5981250
0.21405335 -0.40018669 1.396 6310203
0.22110002 -0.40334001 1.4070001 5717812
0.22645999 -0.40334001 1.4070001 5257259
0.23280859 -0.40506002 1.4130001 5454629
0.23819144 -0.40506002 1.4130001 5848869
0.24357431 -0.40506002 1.4130001 6243098
0.24895717 -0.40506002 1.4130001 6637330
0.25433999 -0.40506002 1.4130001 6966292
0.25972286 -0.40506002 1.4130001 7294485
0.26623142 -0.40678 1.419 7491605
0.27163714 -0.40678 1.419 7623445
0.27587143 -0.40506002 1.4130001 7754518
0.28125429 -0.40506002 1.4130001 7886358
0.28663716 -0.40506002 1.4130001 7952406
0.29202002 -0.40506002 1.4130001 8017942
0.2986657 -0.40678 1.419 8083735
0.30407143 -0.40678 1.419 8214551
0.30816859 -0.40506002 1.4130001 8280599
0.31488287 -0.40678 1.419 8214549
0.32028857 -0.40678 1.419 8082711
0.32569429 -0.40678 1.419 8016936
0.33109999 -0.40678 1.419 7885846
0.33650571 -0.40678 1.419 7886103
0.34191144 -0.40678 1.419 7558422
0.34438002 -0.40334001 1.4070001 6703919
0.34849715 -0.40190667 1.4020001 6439986
0.35383812 -0.40190667 1.4020001 7230229
0.35917908 -0.40190667 1.4020001 7756053
0.36452001 -0.40190667 1.4020001 7822106
0.36986098 -0.40190667 1.4020001 7821335
0.37520191 -0.40190667 1.4020001 6837523
0.71901429 -0.75938004 2.6490002 5057041
0.72910571 -0.75938004 2.6490002 4671841
0.73919719 -0.75938004 2.6490002 4798745
0.74928862 -0.75938004 2.6490002 5391893
0.75938004 -0.75938004 2.6490002 6841174
0.76366192 -0.75364667 2.6290002 7762015
0.77367723 -0.75364667 2.6290002 8092764
0.78965431 -0.75938004 2.6490002 8223579
0.79974574 -0.75938004 2.6490002 8288613
0.80983716 -0.75938004 2.6490002 8287848
0.81992859 -0.75938004 2.6490002 8156525
0.83002007 -0.75938004 2.6490002 8025704
0.84011149 -0.75938004 2.6490002 7763804
0.85020292 -0.75938004 2.6490002 7632728
0.86029434 -0.75938004 2.6490002 7697505
0.87038571 -0.75938004 2.6490002 7697252
0.88047719 -0.75938004 2.6490002 7763557
0.88384479 -0.75364667 2.6290002 7763288
0.90066004 -0.75938004 2.6490002 7763796
0.91762763 -0.76511335 2.6690001 7894362
0.92779529 -0.76511335 2.6690001 7959134
0.93796295 -0.76511335 2.6690001 7894370
0.94813049 -0.76511335 2.6690001 7829342
0.95829815 -0.76511335 2.6690001 7894627
0.96846575 -0.76511335 2.6690001 7894371
0.9786334 -0.76511335 2.6690001 7959141
0.99658096 -0.7711333 2.6900001 7893337
0.99896866 -0.76511335 2.6690001 7761234
1.0015744 -0.75938004 2.6490002 7698262
1.0116657 -0.75938004 2.6490002 7698528
1.0294715 -0.76511335 2.6690001 7699034
1.0396391 -0.76511335 2.6690001 7764066
1.0580666 -0.7711333 2.6900001 7762536
1.0683143 -0.7711333 2.6900001 7827827
1.0785619 -0.7711333 2.6900001 7892331
1.0803096 -0.76511335 2.6690001 7892841
1.0904772 -0.76511335 2.6690001 7958887
1.1006448 -0.76511335 2.6690001 8024681
1.1108124 -0.76511335 2.6690001 8090470
1.1125801 -0.75938004 2.6490002 8157283
1.1311476 -0.76511335 2.6690001 8092010
1.1413153 -0.76511335 2.6690001 7961448
1.1428543 -0.75938004 2.6490002 8222564
1.1616505 -0.76511335 2.6690001 8485222
1.1630372 -0.75938004 2.6490002 8550758
1.1731286 -0.75938004 2.6490002 8419432
1.18322 -0.75938004 2.6490002 8353125
nan nan nan 8353878
nan nan nan 8419156
0.80578953 -0.50424671 1.7590001 8548945
0.8083334 -0.50166672 1.7500001 7891805
0.81080854 -0.49908668 1.7410001 6965289
0.80898952 -0.49392664 1.723 6704935
0.81176668 -0.49163336 1.715 6704920
0.81400573 -0.48905337 1.7060001 6836500
0.81280953 -0.48446667 1.6900001 6966805
0.81488478 -0.48188671 1.6810001 7033369
0.81738001 -0.47959337 1.6730001 7032854
0.81587523 -0.47500667 1.6570001 7032083
0.81424856 -0.47042 1.641 6967060
0.81700003 -0.46841335 1.6340001 7033620
0.81516379 -0.46382666 1.618 7230484
0.81371337 -0.45952669 1.603 7360533
0.81624007 -0.45752001 1.5960001 7360276
0.81871337 -0.45551336 1.5890001 7360534
0.82061428 -0.45322001 1.5810001 7360282
0.82297719 -0.45121336 1.5740001 7295532
0.82528669 -0.44920668 1.567 7295537
0.8275429 -0.44720003 1.5600001 7361076
0.82974571 -0.44519335 1.5530001 7361080
0.83189529 -0.4431867 1.5460001 6771532
nan nan nan 7102301
nan nan nan 9409424
nan nan nan 11181664
nan nan nan 9202202
nan nan nan 5058562
nan nan nan 5276125
nan nan nan 10017783
nan nan nan 12242931
-1.1495097 -0.58530951 2.0150001 11783900
-1.1554334 -0.59228098 2.039 11848667
-1.1544201 -0.59576672 2.0510001 11914207
-1.1533153 -0.59925246 2.0630002 11979485
-1.1454563 -0.59925246 2.0630002 12045537
-1.1447659 -0.6030286 2.0760002 11979744
-1.1434286 -0.60651428 2.0880001 11848671
-1.156683 -0.61784291 2.1270001 11848925
-1.1556 -0.62161905 2.1400001 11848920
-1.1619247 -0.62946188 2.1670001 11782872
-1.1611228 -0.63352859 2.181 11651546
-1.1670858 -0.64137149 2.2080002 11651294
-1.1665457 -0.64572859 2.223 11651291
-1.1653705 -0.64979523 2.237 11651546
-1.1646057 -0.65415239 2.2520001 11650776
-1.1560266 -0.65415239 2.2520001 11716312
-1.1622239 -0.6625762 2.2810001 11716566
-1.1692114 -0.67158097 2.312 11650513
-1.1759629 -0.68058574 2.3430002 11518678
-1.1750067 -0.68523335 2.3590002 11453922
-1.1744229 -0.69017148 2.3760002 11321540
-1.1653715 -0.69017148 2.3760002 10992850
-1.1641067 -0.69481909 2.3920002 10336188
-1.1549944 -0.69481909 2.3920002 10135701
-1.1382172 -0.69017148 2.3760002 9608041
-1.1448486 -0.69975722 2.4090002 8814958
-1.1436858 -0.70469528 2.4260001 8552800
-1.1503428 -0.71457142 2.46 8355678
-1.1576686 -0.72502857 2.4960001 8486241
-1.15644 -0.73025721 2.5140002 8681575
-1.1550742 -0.73548573 2.5320001 8748390
-1.1540239 -0.74100482 2.5510001 8486761
-1.1443057 -0.74100482 2.5510001 8223075
-1.1345876 -0.74100482 2.5510001 9077905
-1.1248696 -0.74100482 2.5510001 10398356
-1.1151515 -0.74100482 2.5510001 10791320
-1.1054333 -0.74100482 2.5510001 10922138
-1.0957153 -0.74100482 2.5510001 11054742
-1.0859971 -0.74100482 2.5510001 11185043
-1.076279 -0.74100482 2.5510001 11250576
-1.066561 -0.74100482 2.5510001 11184787
-1.0568429 -0.74100482 2.5510001 11250319
-1.0471249 -0.74100482 2.5510001 11316353
-1.02968 -0.73548573 2.5320001 11381846
-1.0200343 -0.73548573 2.5320001 11382428
-1.0103886 -0.73548573 2.5320001 11383460
-1.0007429 -0.73548573 2.5320001 11514281
-0.99853432 -0.74100482 2.5510001 11645339
-0.98881626 -0.74100482 2.5510001 11579548
-0.9790982 -0.74100482 2.5510001 11449504
-0.97660005 -0.74652386 2.5700002 11449764
-0.96680957 -0.74652386 2.5700002 11514794
-0.95701909 -0.74652386 2.5700002 11581093
-0.94722867 -0.74652386 2.5700002 11711904
-0.94436866 -0.75204295 2.5890002 11842969
-0.93450576 -0.75204295 2.5890002 11908504
-0.92464292 -0.75204295 2.5890002 11909024
-0.91478008 -0.75204295 2.5890002 11909291
-0.89827627 -0.74652386 2.5700002 11909031
-0.89505434 -0.75204295 2.5890002 11844003
-0.8851915 -0.75204295 2.5890002 11646886
-0.87532866 -0.75204295 2.5890002 11450021
-0.86546576 -0.75204295 2.5890002 11450018
-0.85560292 -0.75204295 2.5890002 11515553
-0.84574008 -0.75204295 2.5890002 11449765
-0.83587724 -0.75204295 2.5890002 11449513
-0.83239532 -0.75785244 2.6090002 11383221
-0.82245624 -0.75785244 2.6090002 11318200
-0.80628866 -0.75204295 2.5890002 11253690
nan nan nan 11252655
nan nan nan 11187362
nan nan nan 11121567
nan nan nan 10989210
nan nan nan 10858642
nan nan nan 9808533
-0.41262004 -0.42090002 1.4490001 8362147
-0.38911909 -0.40230954 1.3850001 8157802
-0.38079429 -0.39911428 1.3740001 8353867
-0.37556002 -0.39911428 1.3740001 8286020
-0.37032571 -0.39911428 1.3740001 8217909
-0.36509144 -0.39911428 1.3740001 8085785
-0.35985714 -0.39911428 1.3740001 7030574
-0.35591334 -0.4005667 1.3790001 6177846
-0.35218576 -0.40230954 1.3850001 6310698
-0.34816194 -0.40376195 1.3900001 6310937
-0.34286669 -0.40376195 1.3900001 6310166
-0.33757144 -0.40376195 1.3900001 6178607
-0.33108097 -0.40230954 1.3850001 5850673
-0.3258048 -0.40230954 1.3850001 5521968
-0.3205286 -0.40230954 1.3850001 5193516
-0.31525239 -0.40230954 1.3850001 4930083
-0.31109527 -0.40376195 1.3900001 4733462
-0.30580002 -0.40376195 1.3900001 4536338
-0.30180189 -0.40550476 1.396 4470553
-0.29648381 -0.40550476 1.396 4404753
-0.29116571 -0.40550476 1.396 4338956
-0.28584763 -0.40550476 1.396 4273165
-0.27932382 -0.40376195 1.3900001 4273177
-0.27521145 -0.40550476 1.396 4338733
-0.26989332 -0.40550476 1.396 4468787
-0.26571238 -0.40724763 1.4020001 4600104
-0.25925714 -0.40550476 1.396 4534294
-0.25393906 -0.40550476 1.396 4271643
-0.24862096 -0.40550476 1.396 4140070
-0.24330285 -0.40550476 1.396 4074278
-0.23696192 -0.40376195 1.3900001 3943452
-0.23166668 -0.40376195 1.3900001 4074267
-0.19852288 -0.35409051 1.2190001 3943450
-0.19308382 -0.3526381 1.2140001 3888753
-0.18845907 -0.3526381 1.2140001 4019841
-0.18262286 -0.35031429 1.2060001 4086150
-0.17610954 -0.3465381 1.1930001 4152205
-0.17098953 -0.34537616 1.189 4218516
-0.16590001 -0.34421429 1.1850001 4285594
-0.16084096 -0.34305242 1.1810001 4286878
-0.1558124 -0.34189048 1.177 4156065
-0.15132858 -0.34189048 1.177 4156066
-0.14634572 -0.34072858 1.1730001 4288682
-0.14187714 -0.34072858 1.1730001 4420520
-0.13740857 -0.34072858 1.1730001 4551587
-0.13294001 -0.34072858 1.1730001 4550565
-0.12847143 -0.34072858 1.1730001 4484503
-0.12400287 -0.34072858 1.1730001 4483476
-0.11953429 -0.34072858 1.1730001 4350867
-0.11506572 -0.34072858 1.1730001 4283791
-0.11022 -0.33956668 1.169 4218000
-0.10576667 -0.33956668 1.169 4152471
-0.10131334 -0.33956668 1.169 4153763
-0.096528575 -0.33840477 1.1650001 3961006
-0.09209048 -0.33840477 1.1650001 3831472
-0.087953337 -0.33956668 1.169 3831469
-0.08378572 -0.34072858 1.1730001 3829670
-0.079587616 -0.34189048 1.177 3630499
-0.075103812 -0.34189048 1.177 3367841
-0.07062 -0.34189048 1.177 3301274
-0.066136189 -0.34189048 1.177 3233424
-0.061861914 -0.34305242 1.1810001 3167113
-0.057557143 -0.34421429 1.1850001 3100796
-0.053221904 -0.34537616 1.189 2900331
-0.04902 -0.34770003 1.197 2570329
-0.044645716 -0.34915239 1.202 2306896
-0.040333334 -0.35147619 1.21 1978442
-0.035841908 -0.3526381 1.2140001 1649730
-0.031448569 -0.35525239 1.223 1451832
-0.026986668 -0.3578667 1.2320001 1318703
-0.022293337 -0.3578667 1.2320001 1382692
-0.017600002 -0.3578667 1.2320001 1252396
-0.012770478 -0.35409051 1.2190001 1253938
-0.0080933347 -0.3526381 1.2140001 1583164
-0.0034457145 -0.35031429 1.2060001 1846080
0.0011447619 -0.34915239 1.202 2174786
0.0057238098 -0.34915239 1.202 2241091
0.010225714 -0.3465381 1.1930001 1913670
0.014770477 -0.3465381 1.1930001 1782858
0.019250475 -0.34537616 1.189 1914190
0.023700003 -0.34421429 1.1850001 2176601
0.02811905 -0.34305242 1.1810001 2309218
0.032618098 -0.34305242 1.1810001 2508401
0.036991432 -0.34189048 1.177 2837111
0.04133429 -0.34072858 1.1730001 3164791
0.045646667 -0.33956668 1.169 3493492
0.050099999 -0.33956668 1.169 3559804
0.054553334 -0.33956668 1.169 3427975
0.059006665 -0.33956668 1.169 3431059
0.06346 -0.33956668 1.169 3564449
0.067913331 -0.33956668 1.169 3697327
0.07236667 -0.33956668 1.169 3896244
0.076557145 -0.33840477 1.1650001 4026807
0.08127334 -0.33956668 1.169 3962806
0.085726663 -0.33956668 1.169 4092064
0.089871436 -0.33840477 1.1650001 4419252
0.094633341 -0.33956668 1.169 4616880
0.099086665 -0.33956668 1.169 4681900
0.10424858 -0.34189048 1.177 4747687
0.10873239 -0.34189048 1.177 4945065
0.11360096 -0.34305242 1.1810001 5075886
0.11810001 -0.34305242 1.1810001 5275575
0.12301429 -0.34421429 1.1850001 5211828
0.12795904 -0.34537616 1.189 5341619
0.13338 -0.34770003 1.197 5406888
0.13897716 -0.35031429 1.2060001 5409751
0.14511906 -0.35409051 1.2190001 5276089
0.15025429 -0.35525239 1.223 4214392
0.1577 -0.36164287 1.245 4142641
0.16296476 -0.36280477 1.2490001 4929080
0.1683943 -0.36425716 1.2540001 4996404
0.17248096 -0.36280477 1.2490001 4864305
0.17667143 -0.36164287 1.245 4927292
0.18141429 -0.36164287 1.245 5521232
0.18615714 -0.36164287 1.245 6180433
0.19013333 -0.36019048 1.24 6511695
0.19422857 -0.35902858 1.2360001 6312516
0.22645999 -0.40870002 1.4070001 5717043
0.23182 -0.40870002 1.4070001 5585453
0.23718001 -0.40870002 1.4070001 5914159
0.24254 -0.40870002 1.4070001 6308394
0.24790001 -0.40870002 1.4070001 6571803
0.25325999 -0.40870002 1.4070001 6834963
0.25862002 -0.40870002 1.4070001 7032341
0.26510572 -0.41044289 1.4130001 7294492
0.27048859 -0.41044289 1.4130001 7491862
0.27470002 -0.40870002 1.4070001 7688980
0.27906477 -0.40724763 1.4020001 7820311
0.28542 -0.40870002 1.4070001 7886871
0.29078001 -0.40870002 1.4070001 8017686
0.29740286 -0.41044289 1.4130001 8017685
0.30278572 -0.41044289 1.4130001 8148502
0.30816859 -0.41044289 1.4130001 8149014
0.31488287 -0.41218573 1.419 8018198
0.32028857 -0.41218573 1.419 7951896
0.32569429 -0.41218573 1.419 7886119
0.32970002 -0.41044289 1.4130001 7820843
0.33508289 -0.41044289 1.4130001 7820321
0.34046572 -0.41044289 1.4130001 7557914
0.34315622 -0.40724763 1.4020001 6901268
0.34849715 -0.40724763 1.4020001 6572316
0.3523238 -0.40550476 1.396 6901780
0.35764191 -0.40550476 1.396 7428630
0.36296001 -0.40550476 1.396 7756824
0.36986098 -0.40724763 1.4020001 7954473
0.37520191 -0.40724763 1.4020001 6049079
0.71901429 -0.76947147 2.6490002 2697254
0.72910571 -0.76947147 2.6490002 2375473
0.73919719 -0.76947147 2.6490002 3489595
0.75494576 -0.77528101 2.6690001 4076563
0.75938004 -0.76947147 2.6490002 5661792
0.76947147 -0.76947147 2.6490002 7173215
0.77956295 -0.76947147 2.6490002 7762775
0.79561621 -0.77528101 2.6690001 7893336
0.80578387 -0.77528101 2.6690001 7960154
0.81595147 -0.77528101 2.6690001 7894369
0.82611907 -0.77528101 2.6690001 7762797
0.83002007 -0.76947147 2.6490002 7696491
0.84645432 -0.77528101 2.6690001 7565665
0.85662198 -0.77528101 2.6690001 7500375
0.86678952 -0.77528101 2.6690001 7433818
0.87695718 -0.77528101 2.6690001 7498323
0.88047719 -0.76947147 2.6490002 7433295
0.89056861 -0.76947147 2.6490002 7433300
0.90746003 -0.77528101 2.6690001 7433298
0.91762763 -0.77528101 2.6690001 7565137
0.92779529 -0.77528101 2.6690001 7696459
0.9453429 -0.78138095 2.6900001 7695956
0.94813049 -0.77528101 2.6690001 7630429
0.96583807 -0.78138095 2.6900001 7630179
0.97608572 -0.78138095 2.6900001 7696222
0.98633337 -0.78138095 2.6900001 7630686
0.99658096 -0.78138095 2.6900001 7630948
0.99896866 -0.77528101 2.6690001 7566176
1.0091362 -0.77528101 2.6690001 7501410
1.0193038 -0.77528101 2.6690001 7566686
1.0375714 -0.78138095 2.6900001 7566689
1.0478191 -0.78138095 2.6900001 7435613
1.0663267 -0.78748101 2.7110002 7500398
1.0766543 -0.78748101 2.7110002 7631218
1.0869819 -0.78748101 2.7110002 7630956
1.0888095 -0.78138095 2.6900001 7630692
1.0990572 -0.78138095 2.6900001 7696231
1.1093048 -0.78138095 2.6900001 7762029
1.1108124 -0.77528101 2.6690001 7893860
1.12098 -0.77528101 2.6690001 8025436
1.1400477 -0.78138095 2.6900001 7960163
1.1413153 -0.77528101 2.6690001 7829351
1.1514828 -0.77528101 2.6690001 7960681
1.1616505 -0.77528101 2.6690001 8222054
1.1718181 -0.77528101 2.6690001 8220775
1.1819857 -0.77528101 2.6690001 8154477
1.1921535 -0.77528101 2.6690001 8023650
nan nan nan 8023388
nan nan nan 8088159
nan nan nan 8087901
0.81249052 -0.51094759 1.7590001 8219470
0.81080854 -0.50571907 1.7410001 7359821
0.80898952 -0.50049049 1.723 6508088
0.81176668 -0.49816668 1.715 6770453
0.81018859 -0.49322858 1.6980001 6967060
0.80848098 -0.48829049 1.6810001 7228948
0.81100672 -0.48596668 1.6730001 7164447
0.81738001 -0.48596668 1.6730001 7032876
0.8119362 -0.47899523 1.649 6967064
0.81424856 -0.47667143 1.641 6966549
0.81700003 -0.4746381 1.6340001 7097877
0.81516379 -0.46999049 1.618 7294741
0.81371337 -0.46563333 1.603 7425556
0.81624007 -0.46360001 1.5960001 7360532
0.82232004 -0.46360001 1.5960001 7230228
0.82061428 -0.45924288 1.5810001 7164693
0.82663721 -0.45924288 1.5810001 7164203
0.82897335 -0.45720956 1.5740001 7164446
0.83125621 -0.45517617 1.567 7296041
0.82974571 -0.45110956 1.5530001 7230260
0.83189529 -0.44907621 1.5460001 7099452
nan nan nan 8749442
nan nan nan 10527376
nan nan nan 8282649
nan nan nan 4152117
nan nan nan 5680620
nan nan nan 11596535
nan nan nan 13623536
nan nan nan 10923716
-1.1426638 -0.58945429 2.003 11980506
-1.1486334 -0.59651721 2.0270002 11914456
-1.1476657 -0.6000486 2.039 11783647
-1.1466067 -0.60358 2.0510001 11717858
-1.1454563 -0.60711145 2.0630002 11848675
-1.1447659 -0.61093718 2.0760002 11914460
-1.1505476 -0.6182943 2.1010001 11783389
-1.156683 -0.62594575 2.1270001 11717339
-1.1626201 -0.6335972 2.1530001 11651290
-1.1619247 -0.63771719 2.1670001 11652057
-1.1536696 -0.63771719 2.1670001 11716824
-1.1596857 -0.64566284 2.194 11717083
-1.1665457 -0.65419716 2.223 11652316
-1.1653705 -0.65831709 2.237 11585753
-1.1646057 -0.66273147 2.2520001 11585748
-1.1709135 -0.67126572 2.2810001 11650260
-1.1703763 -0.67597437 2.2970002 11650519
-1.1767972 -0.68480289 2.3270001 11519960
-1.1759629 -0.68951148 2.3430002 11454427
-1.1670371 -0.68951148 2.3430002 11323105
-1.1660202 -0.69422007 2.3590002 11254992
-1.1653715 -0.69922286 2.3760002 11057603
-1.1641067 -0.70393145 2.3920002 10597814
-1.1549944 -0.70393145 2.3920002 10400425
-1.1382172 -0.69922286 2.3760002 10134163
-1.1529278 -0.71393716 2.4260001 9538652
-1.1356715 -0.70893431 2.4090002 8880225
-1.1503428 -0.72394288 2.46 8487270
-1.1493201 -0.72924 2.4780002 8551785
-1.15644 -0.73983431 2.5140002 8550505
-1.1550742 -0.74513143 2.5320001 8485734
-1.1626191 -0.75631434 2.5700002 8356454
-1.1528287 -0.75631434 2.5700002 7963491
-1.1430382 -0.75631434 2.5700002 7961436
-1.1332476 -0.75631434 2.5700002 9346224
-1.1234572 -0.75631434 2.5700002 10460568
-1.1054333 -0.75072289 2.5510001 10660245
-1.1038762 -0.75631434 2.5700002 10924172
-1.0940857 -0.75631434 2.5700002 11120019
-1.0842954 -0.75631434 2.5700002 11184274
-1.0745049 -0.75631434 2.5700002 11184789
-1.0647143 -0.75631434 2.5700002 11250587
-1.0549239 -0.75631434 2.5700002 11184544
-1.0451334 -0.75631434 2.5700002 11250849
-1.0276885 -0.75072289 2.5510001 11316903
-1.0255524 -0.75631434 2.5700002 11383200
-1.015762 -0.75631434 2.5700002 11514268
-1.0059714 -0.75631434 2.5700002 11513755
-0.99618107 -0.75631434 2.5700002 11448470
-0.9790982 -0.75072289 2.5510001 11317916
-0.96938002 -0.75072289 2.5510001 11317922
-0.96680957 -0.75631434 2.5700002 11449254
-0.95701909 -0.75631434 2.5700002 11514789
-0.9542315 -0.76190579 2.5890002 11646116
-0.95166385 -0.76779151 2.6090002 11777439
-0.94172484 -0.76779151 2.6090002 11777438
-0.93178576 -0.76779151 2.6090002 11843491
-0.91478008 -0.76190579 2.5890002 11778219
-0.90491724 -0.76190579 2.5890002 11778727
-0.89505434 -0.76190579 2.5890002 11778471
-0.89202958 -0.76779151 2.6090002 11712168
-0.88209051 -0.76779151 2.6090002 11580836
-0.87215149 -0.76779151 2.6090002 11449510
-0.86221242 -0.76779151 2.6090002 11449512
-0.8522734 -0.76779151 2.6090002 11449506
-0.84233433 -0.76779151 2.6090002 11383976
-0.83877629 -0.77367723 2.6290002 11383213
-0.82876098 -0.77367723 2.6290002 11382709
-0.81874573 -0.77367723 2.6290002 11318462
nan nan nan 11319464
nan nan nan 11253662
nan nan nan 11187614
nan nan nan 10988706
nan nan nan 10726814
-0.4164086 -0.4246543 1.4430001 9345955
-0.40578571 -0.41935715 1.4250001 8691852
-0.38911909 -0.40758574 1.3850001 8746307
-0.37913144 -0.40258285 1.368 8221500
-0.37255332 -0.40111145 1.363 8285241
-0.36736095 -0.40111145 1.363 8086066
-0.36349714 -0.40258285 1.368 7692591
-0.35985714 -0.40434858 1.3740001 6833731
-0.35591334 -0.40582001 1.3790001 6242616
-0.35218576 -0.40758574 1.3850001 6245408
-0.34690955 -0.40758574 1.3850001 6310930
-0.34163335 -0.40758574 1.3850001 6309906
-0.33757144 -0.40905717 1.3900001 6046737
-0.33108097 -0.40758574 1.3850001 5784341
-0.3258048 -0.40758574 1.3850001 5456425
-0.3205286 -0.40758574 1.3850001 5128238
-0.31525239 -0.40758574 1.3850001 4864811
-0.30997622 -0.40758574 1.3850001 4667418
-0.30470002 -0.40758574 1.3850001 4470804
-0.30050477 -0.40905717 1.3900001 4339729
-0.29414764 -0.40758574 1.3850001 4339736
-0.28991431 -0.40905717 1.3900001 4273944
-0.28461909 -0.40905717 1.3900001 4338992
-0.27831906 -0.40758574 1.3850001 4665661
-0.27521145 -0.41082287 1.396 5126983
-0.26989332 -0.41082287 1.396 5456698
-0.26571238 -0.4125886 1.4020001 5389874
-0.26037145 -0.4125886 1.4020001 5058863
-0.25393906 -0.41082287 1.396 4860979
-0.24755239 -0.40905717 1.3900001 4928299
-0.24225716 -0.40905717 1.3900001 4798247
-0.23610954 -0.40758574 1.3850001 4404012
-0.23083335 -0.40758574 1.3850001 4271161
-0.19770859 -0.35726288 1.2140001 4271449
-0.19244762 -0.35608572 1.21 4281988
-0.18721716 -0.35490859 1.2060001 4216196
-0.18125999 -0.35226002 1.197 4216711
-0.17551905 -0.3499057 1.189 4152717
-0.1704143 -0.34872857 1.1850001 4154003
-0.16534001 -0.34755147 1.1810001 4154774
-0.16029619 -0.3463743 1.177 4154520
-0.15528287 -0.34519717 1.1730001 4088988
-0.15081429 -0.34519717 1.1730001 4089504
-0.14584666 -0.34402001 1.169 4025254
-0.14090954 -0.34284288 1.1650001 4158113
-0.13647144 -0.34284288 1.1650001 4353430
-0.13203335 -0.34284288 1.1650001 4418987
-0.12759525 -0.34284288 1.1650001 4416394
-0.12315714 -0.34284288 1.1650001 4219532
-0.11912666 -0.34402001 1.169 4022412
-0.11467334 -0.34402001 1.169 4086666
-0.10984286 -0.34284288 1.1650001 4152210
-0.10540477 -0.34284288 1.1650001 4152990
-0.10096667 -0.34284288 1.1650001 4022949
-0.096528575 -0.34284288 1.1650001 3959724
-0.09209048 -0.34284288 1.1650001 3962539
-0.087953337 -0.34402001 1.169 3898552
-0.083500005 -0.34402001 1.169 3832749
-0.079317145 -0.34519717 1.1730001 3303334
-0.075103812 -0.3463743 1.177 2909097
-0.07062 -0.3463743 1.177 3167881
-0.066136189 -0.3463743 1.177 3099263
-0.061652381 -0.3463743 1.177 2837112
-0.057362862 -0.34755147 1.1810001 2769772
-0.053042859 -0.34872857 1.1850001 2833243
-0.048856195 -0.35108286 1.1930001 2635088
-0.04431143 -0.35108286 1.1930001 2175044
-0.039900001 -0.35226002 1.197 1715514
-0.035605714 -0.35490859 1.2060001 1452855
-0.031448569 -0.35991144 1.223 1123638
-0.026877144 -0.3610886 1.2270001 1056293
-0.022130478 -0.35991144 1.223 1251610
-0.017414287 -0.35873431 1.2190001 1120800
-0.012718096 -0.35726288 1.2140001 925999
-0.0080666672 -0.35608572 1.21 1255226
-0.0034342855 -0.35373142 1.202 1649214
0.0011400001 -0.35226002 1.197 2043202
0.0057000001 -0.35226002 1.197 2175047
0.010157144 -0.34872857 1.1850001 1913676
0.014621906 -0.34755147 1.1810001 1651533
0.019120954 -0.34755147 1.1810001 1717328
0.023540001 -0.3463743 1.177 2045011
0.028023811 -0.3463743 1.177 2241880
0.032507621 -0.3463743 1.177 2439776
0.036991432 -0.3463743 1.177 2768486
0.041193336 -0.34402001 1.169 3031661
0.045646667 -0.34402001 1.169 3229807
0.049928572 -0.34284288 1.1650001 3362426
0.054366671 -0.34284288 1.1650001 3364480
0.058804765 -0.34284288 1.1650001 3429003
0.06324286 -0.34284288 1.1650001 3303584
0.067913331 -0.34402001 1.169 3435193
0.07211905 -0.34284288 1.1650001 3765429
0.076557145 -0.34284288 1.1650001 4027326
0.08127334 -0.34402001 1.169 4095173
0.085433342 -0.34284288 1.1650001 4228802
0.089871436 -0.34284288 1.1650001 4555199
0.094633341 -0.34402001 1.169 4620985
0.098747626 -0.34284288 1.1650001 4555190
0.10389429 -0.34519717 1.1730001 4553904
0.10836286 -0.34519717 1.1730001 4683435
0.1132162 -0.3463743 1.177 4945067
0.11810001 -0.34755147 1.1810001 5142961
0.12301429 -0.34872857 1.1850001 5210036
0.12795904 -0.3499057 1.189 5276086
0.13293429 -0.35108286 1.1930001 5340081
0.13851619 -0.35373142 1.202 5406388
0.14452383 -0.35726288 1.2140001 5669314
0.15025429 -0.35991144 1.223 4281749
0.1577 -0.3663857 1.245 3746348
0.16296476 -0.36756286 1.2490001 4997702
0.16772287 -0.36756286 1.2490001 5326660
0.17192857 -0.3663857 1.245 5324617
0.17667143 -0.3663857 1.245 5324630
0.18068571 -0.3649143 1.24 5853535
0.18540953 -0.3649143 1.24 6442847
0.18952 -0.36373714 1.2360001 6644306
0.19422857 -0.36373714 1.2360001 6380364
0.19893715 -0.36373714 1.2360001 5915190
0.20430477 -0.3649143 1.24 5914421
0.23718001 -0.41406003 1.4070001 6242867
0.2416781 -0.4125886 1.4020001 6571306
0.24701907 -0.4125886 1.4020001 6702878
0.25236002 -0.4125886 1.4020001 6768660
0.25770095 -0.4125886 1.4020001 7031581
0.26398 -0.41406003 1.4070001 7228699
0.26934001 -0.41406003 1.4070001 7426325
0.27372381 -0.4125886 1.4020001 7623189
0.27906477 -0.4125886 1.4020001 7754260
0.28440571 -0.4125886 1.4020001 7755285
0.28974667 -0.4125886 1.4020001 7821335
0.29614002 -0.41406003 1.4070001 7952150
0.30150002 -0.41406003 1.4070001 8082966
0.30686 -0.41406003 1.4070001 8082454
0.31355146 -0.41582575 1.4130001 8016917
0.31893429 -0.41582575 1.4130001 7952150
0.32431716 -0.41582575 1.4130001 7951130
0.32970002 -0.41582575 1.4130001 7951660
0.33366001 -0.41406003 1.4070001 7820595
0.33902001 -0.41406003 1.4070001 7558431
0.34315622 -0.4125886 1.4020001 7230228
0.34700572 -0.41082287 1.396 6896653
0.3523238 -0.41082287 1.396 6900762
0.35764191 -0.41082287 1.396 7428374
0.36140004 -0.40905717 1.3900001 7756566
0.36827812 -0.41082287 1.396 8150043
0.37359619 -0.41082287 1.396 7034652
0.71901429 -0.77956295 2.6490002 3149076
0.73461056 -0.78544861 2.6690001 2047301
0.7447781 -0.78544861 2.6690001 3425360
0.75494576 -0.78544861 2.6690001 3155727
0.76511335 -0.78544861 2.6690001 4741722
0.77528101 -0.78544861 2.6690001 6846591
0.78544861 -0.78544861 2.6690001 7237731
0.80187619 -0.7916286 2.6900001 7433822
0.81212384 -0.7916286 2.6900001 7499359
0.82237142 -0.7916286 2.6900001 7499363
0.83261901 -0.7916286 2.6900001 7367779
0.84286666 -0.7916286 2.6900001 7367265
0.85311431 -0.7916286 2.6900001 7300959
0.8633619 -0.7916286 2.6900001 7234656
0.87360954 -0.7916286 2.6900001 7234653
0.88385719 -0.7916286 2.6900001 7234908
0.88712484 -0.78544861 2.6690001 7235919
0.89729244 -0.78544861 2.6690001 7039832
0.91460001 -0.7916286 2.6900001 7040091
0.92484766 -0.7916286 2.6900001 7171933
0.94239533 -0.79780859 2.7110002 7302493
0.95272291 -0.79780859 2.7110002 7302498
0.95559049 -0.7916286 2.6900001 7302245
0.96583807 -0.7916286 2.6900001 7302244
0.98370582 -0.79780859 2.7110002 7433566
0.9940334 -0.79780859 2.7110002 7433571
1.004361 -0.79780859 2.7110002 7368040
1.0146886 -0.79780859 2.7110002 7302253
1.0170763 -0.7916286 2.6900001 7303274
1.0273238 -0.7916286 2.6900001 7434093
1.0375714 -0.7916286 2.6900001 7368296
1.0559992 -0.79780859 2.7110002 7237219
1.0663267 -0.79780859 2.7110002 7236450
1.0766543 -0.79780859 2.7110002 7367524
1.0869819 -0.79780859 2.7110002 7367776
1.0888095 -0.7916286 2.6900001 7368290
1.0990572 -0.7916286 2.6900001 7368289
1.1179647 -0.79780859 2.7110002 7499871
1.1195524 -0.7916286 2.6900001 7631961
1.1298001 -0.7916286 2.6900001 7698263
1.1489477 -0.79780859 2.7110002 7697498
1.1502953 -0.7916286 2.6900001 7631716
1.160543 -0.7916286 2.6900001 7762279
1.1707906 -0.7916286 2.6900001 7827044
1.1718181 -0.78544861 2.6690001 7827301
1.1912857 -0.7916286 2.6900001 7762030
1.2109134 -0.79780859 2.7110002 7630945
nan nan nan 7694425
nan nan nan 7824991
nan nan nan 7955044
0.81249052 -0.51764858 1.7590001 8218186
0.81080854 -0.51235139 1.7410001 7494469
0.81321526 -0.50970292 1.7320001 6638908
0.81176668 -0.50470001 1.715 6835499
0.81018859 -0.49969715 1.6980001 7162900
0.81280953 -0.49734288 1.6900001 7359764
0.81100672 -0.49234003 1.6730001 7360533
0.81347144 -0.48998576 1.6650001 7098650
0.8119362 -0.48527715 1.649 6967574
0.81424856 -0.48292285 1.641 6966804
0.81700003 -0.48086286 1.6340001 7097364
0.81516379 -0.4761543 1.618 7163925
0.8177743 -0.4740943 1.6110001 7229205
0.81624007 -0.46968001 1.5960001 7229461
0.82232004 -0.46968001 1.5960001 7164693
0.82061428 -0.46526572 1.5810001 7099170
0.82663721 -0.46526572 1.5810001 7098928
0.82528669 -0.4611457 1.567 7163950
0.83125621 -0.4611457 1.567 7033650
0.82974571 -0.45702574 1.5530001 6968340
0.83189529 -0.45496577 1.5460001 8550761
nan nan nan 10262952
nan nan nan 7957021
nan nan nan 4940681
nan nan nan 6931445
nan nan nan 12712699
nan nan nan 15002098
nan nan nan 11509921
nan nan nan 6970405
-1.1495097 -0.60066193 2.0150001 12046046
-1.1486334 -0.60423911 2.0270002 11914974
-1.1476657 -0.60781622 2.039 11718370
-1.1466067 -0.61139333 2.0510001 11587549
-1.1454563 -0.61497051 2.0630002 11587036
-1.1447659 -0.61884576 2.0760002 11652552
-1.1505476 -0.62629813 2.1010001 11718120
-1.156683 -0.63404858 2.1270001 11651807
-1.1556 -0.63792384 2.1400001 11716827
-1.1619247 -0.64597237 2.1670001 11717336
-1.1536696 -0.64597237 2.1670001 11717338
-1.1670858 -0.65819436 2.2080002 11716829
-1.1665457 -0.66266572 2.223 11651547
-1.1653705 -0.666839 2.237 11651288
-1.1718457 -0.67548382 2.266 11650520
-1.1709135 -0.6799553 2.2810001 11651032
-1.1703763 -0.68472481 2.2970002 11519960
-1.1692114 -0.68919617 2.312 11389399
-1.1604038 -0.68919617 2.312 11323865
-1.1590677 -0.69366771 2.3270001 11323614
-1.1660202 -0.70320672 2.3590002 11253441
-1.1732192 -0.71304387 2.3920002 11057857
-1.17238 -0.71811146 2.4090002 10729400
-1.1632029 -0.71811146 2.4090002 10465722
-1.145882 -0.71304387 2.3920002 10528960
-1.1529278 -0.72317904 2.4260001 10065795
-1.1517 -0.72824663 2.4430001 8945246
-1.1587601 -0.73868006 2.4780002 8552555
-1.1576686 -0.74404567 2.4960001 8551782
-1.15644 -0.74941152 2.5140002 8485477
-1.1637419 -0.76044095 2.5510001 8419685
-1.1626191 -0.76610476 2.5700002 8420452
-1.1703229 -0.77773052 2.6090002 8357979
-1.1514887 -0.77176863 2.5890002 7633745
-1.1416259 -0.77176863 2.5890002 8420764
-1.1234572 -0.76610476 2.5700002 10067100
-1.1136668 -0.76610476 2.5700002 10462365
-1.1038762 -0.76610476 2.5700002 10791829
-1.1021744 -0.77176863 2.5890002 11056273
-1.0923115 -0.77176863 2.5890002 11120792
-1.0824486 -0.77176863 2.5890002 11118750
-1.0647143 -0.76610476 2.5700002 11184286
-1.0549239 -0.76610476 2.5700002 11185051
-1.05286 -0.77176863 2.5890002 11185303
-1.0429972 -0.77176863 2.5890002 11316376
-1.0331345 -0.77176863 2.5890002 11447707
-1.0232714 -0.77176863 2.5890002 11514009
-1.0059714 -0.76610476 2.5700002 11447960
-0.99618107 -0.76610476 2.5700002 11382932
-0.98639053 -0.76610476 2.5700002 11383703
-0.97660005 -0.76610476 2.5700002 11449248
-0.96680957 -0.76610476 2.5700002 11513760
-0.96409434 -0.77176863 2.5890002 11580326
-0.9542315 -0.77176863 2.5890002 11646117
-0.9589591 -0.78369242 2.6290002 11711910
-0.94172484 -0.77773052 2.6090002 11777187
-0.9389286 -0.78369242 2.6290002 11842978
-0.92184675 -0.77773052 2.6090002 11778472
-0.90491724 -0.77176863 2.5890002 11646882
-0.90196866 -0.77773052 2.6090002 11647144
-0.89202958 -0.77773052 2.6090002 11712417
-0.88885242 -0.78369242 2.6290002 11711907
-0.87883717 -0.78369242 2.6290002 11645857
-0.86882198 -0.78369242 2.6290002 11579812
-0.85880673 -0.78369242 2.6290002 11449253
-0.85524863 -0.78965431 2.6490002 11318695
-0.84515715 -0.78965431 2.6490002 11252134
-0.84137046 -0.79561621 2.6690001 11382433
nan nan nan 11513755
nan nan nan 11382943
nan nan nan 11253150
nan nan nan 11187871
nan nan nan 11054752
nan nan nan 10464425
-0.41121429 -0.42478573 1.4250001 9869220
-0.40236861 -0.42120862 1.4130001 9740953
-0.38911909 -0.41286194 1.3850001 9071173
-0.37913144 -0.4077943 1.368 8351288
-0.37255332 -0.40630382 1.363 8284195
-0.36736095 -0.40630382 1.363 7954985
-0.36216858 -0.40630382 1.363 7495726
-0.35985714 -0.40958285 1.3740001 6769719
-0.35591334 -0.41107336 1.3790001 6179119
-0.35066003 -0.41107336 1.3790001 6245139
-0.34540668 -0.41107336 1.3790001 6375441
-0.34163335 -0.41286194 1.3850001 6244371
-0.33635715 -0.41286194 1.3850001 6046993
-0.33108097 -0.41286194 1.3850001 5784336
-0.3258048 -0.41286194 1.3850001 5390095
-0.3205286 -0.41286194 1.3850001 5062159
-0.31388667 -0.41107336 1.3790001 4799759
-0.30997622 -0.41286194 1.3850001 4536598
-0.30470002 -0.41286194 1.3850001 4339476
-0.29942381 -0.41286194 1.3850001 4339469
-0.29414764 -0.41286194 1.3850001 4405541
-0.28762001 -0.41107336 1.3790001 4340013
-0.28236669 -0.41107336 1.3790001 4274495
-0.27711335 -0.41107336 1.3790001 5126471
-0.23854285 -0.36069524 1.21 6378326
-0.23393333 -0.36069524 1.21 6573124
-0.22932382 -0.36069524 1.21 6179641
-0.22471429 -0.36069524 1.21 5718846
-0.22083241 -0.36188763 1.2140001 5652285
-0.21620764 -0.36188763 1.2140001 5783605
-0.24225716 -0.41435242 1.3900001 5522997
-0.23508668 -0.41107336 1.3790001 5062204
-0.20166667 -0.36069524 1.21 4536134
-0.19705714 -0.36069524 1.21 4207186
-0.19117524 -0.35831049 1.202 4085619
-0.18582 -0.35682002 1.197 4150911
-0.1806543 -0.35562763 1.1930001 4150922
-0.17551905 -0.35443524 1.189 4088207
-0.16926381 -0.35085809 1.177 4023697
-0.16478001 -0.35085809 1.177 3957395
-0.15975145 -0.34966573 1.1730001 4022422
-0.15528287 -0.34966573 1.1730001 4087961
-0.1503 -0.34847334 1.169 4087704
-0.14534763 -0.34728098 1.1650001 3958681
-0.14090954 -0.34728098 1.1650001 4090261
-0.13647144 -0.34728098 1.1650001 4219273
-0.13158 -0.34608856 1.161 4216702
-0.12715714 -0.34608856 1.161 4148095
-0.12273429 -0.34608856 1.161 3951996
-0.11831143 -0.34608856 1.161 3889022
-0.11388857 -0.34608856 1.161 3950446
-0.10908858 -0.3448962 1.1570001 4085379
-0.10504285 -0.34608856 1.161 4088482
-0.10062 -0.34608856 1.161 3958421
-0.096197143 -0.34608856 1.161 4022940
-0.091774285 -0.34608856 1.161 4018833
-0.087652385 -0.34728098 1.1650001 3949705
-0.083500005 -0.34847334 1.169 3884157
-0.079317145 -0.34966573 1.1730001 3427691
-0.074848577 -0.34966573 1.1730001 2969197
-0.07038001 -0.34966573 1.1730001 2902634
-0.066136189 -0.35085809 1.177 2833768
-0.061652381 -0.35085809 1.177 2637667
-0.057362862 -0.35205051 1.1810001 2570331
-0.052863814 -0.35205051 1.1810001 2438227
-0.048528574 -0.35324287 1.1850001 2240581
-0.044162858 -0.35443524 1.189 1780541
-0.039766666 -0.35562763 1.1930001 1387061
-0.03534 -0.35682002 1.197 1189944
-0.030908573 -0.35831049 1.202 992314
-0.026701907 -0.36337811 1.2190001 990765
-0.022058096 -0.36337811 1.2190001 1120290
-0.017414287 -0.36337811 1.2190001 1054759
-0.012718096 -0.36188763 1.2140001 991278
-0.0080400007 -0.35950288 1.2060001 1254195
-0.00342 -0.35682002 1.197 1648442
0.0011361905 -0.35562763 1.1930001 1977152
0.0056619048 -0.35443524 1.189 2108995
0.010088571 -0.35085809 1.177 2110027
0.014522858 -0.34966573 1.1730001 1913675
0.019056192 -0.35085809 1.177 1979210
0.023460001 -0.34966573 1.1730001 2241613
0.027928574 -0.34966573 1.1730001 2372176
0.032397144 -0.34966573 1.1730001 2503764
0.036739998 -0.34847334 1.169 2635093
0.041052382 -0.34728098 1.1650001 2766429
0.045490477 -0.34728098 1.1650001 2898534
0.049757142 -0.34608856 1.161 2899311
0.054366671 -0.34728098 1.1650001 2965360
0.058804765 -0.34728098 1.1650001 3031416
0.06324286 -0.34728098 1.1650001 3098235
0.067680955 -0.34728098 1.1650001 3361920
0.07211905 -0.34728098 1.1650001 3757713
0.076557145 -0.34728098 1.1650001 4021927
0.080995239 -0.34728098 1.1650001 4090794
0.085433342 -0.34728098 1.1650001 4292042
0.089871436 -0.34728098 1.1650001 4620473
0.094309531 -0.34728098 1.1650001 4686002
0.098747626 -0.34728098 1.1650001 4622257
0.10318572 -0.34728098 1.1650001 4554670
0.10799333 -0.34847334 1.169 4683953
0.11283144 -0.34966573 1.1730001 4880049
0.1177 -0.35085809 1.177 4945329
0.12259907 -0.35205051 1.1810001 5077681
0.12752858 -0.35324287 1.1850001 5209525
0.13248858 -0.35443524 1.189 5340341
0.13794 -0.35682002 1.197 5340086
0.14404762 -0.36069524 1.21 5735361
0.14976287 -0.36337811 1.2190001 5007782
0.15706666 -0.36963809 1.24 4541738
0.16244286 -0.37112856 1.245 5262148
0.16718571 -0.37112856 1.245 5393987
0.17123809 -0.36963809 1.24 5194311
0.17539428 -0.36844572 1.2360001 5126475
0.18010285 -0.36844572 1.2360001 5720397
0.18481143 -0.36844572 1.2360001 6377554
0.18890668 -0.36725336 1.2320001 6642261
0.19422857 -0.36844572 1.2360001 6577257
0.19829336 -0.36725336 1.2320001 6104585
0.20364572 -0.36844572 1.2360001 5980220
0.20902857 -0.36963809 1.24 6441022
0.2416781 -0.41792953 1.4020001 6703933
0.2459619 -0.41614094 1.396 6834200
0.25236002 -0.41792953 1.4020001 6899987
0.25770095 -0.41792953 1.4020001 7096351
0.26304191 -0.41792953 1.4020001 7359529
0.26838285 -0.41792953 1.4020001 7491355
0.27372381 -0.41792953 1.4020001 7688470
0.27906477 -0.41792953 1.4020001 7754004
0.28440571 -0.41792953 1.4020001 7754518
0.28974667 -0.41792953 1.4020001 7755286
0.29508764 -0.41792953 1.4020001 7886617
0.30042857 -0.41792953 1.4020001 8017431
0.30576953 -0.41792953 1.4020001 8083226
0.31222001 -0.41942 1.4070001 8017175
0.31645143 -0.41792953 1.4020001 7952150
0.32293999 -0.41942 1.4070001 8017194
0.32713336 -0.41792953 1.4020001 8016435
0.33247429 -0.41792953 1.4020001 7820591
0.33781525 -0.41792953 1.4020001 7624215
0.34315622 -0.41792953 1.4020001 7427865
0.34700572 -0.41614094 1.396 6962736
0.3523238 -0.41614094 1.396 6965549
0.35610479 -0.41435242 1.3900001 7558436
0.36140004 -0.41435242 1.3900001 7887638
0.36669526 -0.41435242 1.3900001 8215833
0.37065241 -0.41286194 1.3850001 7626532
0.71901429 -0.78965431 2.6490002 3743252
0.72910571 -0.78965431 2.6490002 2906502
0.7447781 -0.79561621 2.6690001 4012116
0.76088572 -0.80187619 2.6900001 2630977
0.7711333 -0.80187619 2.6900001 3882790
0.78138095 -0.80187619 2.6900001 5861471
0.7916286 -0.80187619 2.6900001 6646869
0.80187619 -0.80187619 2.6900001 6909015
0.81212384 -0.80187619 2.6900001 7040092
0.82237142 -0.80187619 2.6900001 7105375
0.83911914 -0.80813628 2.7110002 7105115
0.84944671 -0.80813628 2.7110002 7104601
0.85977435 -0.80813628 2.7110002 7038556
0.87010193 -0.80813628 2.7110002 6972499
0.88042957 -0.80813628 2.7110002 6971736
0.8907572 -0.80813628 2.7110002 6971474
0.89410478 -0.80187619 2.6900001 6906960
0.90435237 -0.80187619 2.6900001 6711892
0.92922002 -0.81469429 2.733 6712674
0.93206769 -0.80813628 2.7110002 6776928
0.9500429 -0.81469429 2.733 6842727
0.96045429 -0.81469429 2.733 6974054
0.97086573 -0.81469429 2.733 6974050
0.98127717 -0.81469429 2.733 7105112
0.99168861 -0.81469429 2.733 7170648
1.0021 -0.81469429 2.733 7170393
1.0125114 -0.81469429 2.733 7104864
1.0146886 -0.80813628 2.7110002 7105126
1.0250163 -0.80813628 2.7110002 7171688
1.0353439 -0.80813628 2.7110002 7236452
1.0541571 -0.81469429 2.733 7236442
1.0645685 -0.81469429 2.733 7039317
1.07498 -0.81469429 2.733 6973527
1.0853914 -0.81469429 2.733 7038806
1.0869819 -0.80813628 2.7110002 7104343
1.0973096 -0.80813628 2.7110002 7039571
1.1076372 -0.80813628 2.7110002 7040093
1.1270372 -0.81469429 2.733 7171421
1.1282924 -0.80813628 2.7110002 7302236
1.1386201 -0.80813628 2.7110002 7302491
1.1489477 -0.80813628 2.7110002 7170909
1.1592754 -0.80813628 2.7110002 7235423
1.169603 -0.80813628 2.7110002 7432294
1.1707906 -0.80187619 2.6900001 7564393
1.181038 -0.80187619 2.6900001 7630184
1.2005858 -0.80813628 2.7110002 7434334
1.2109134 -0.80813628 2.7110002 7235418
nan nan nan 7299931
nan nan nan 7495776
nan nan nan 7627101
nan nan nan 7758417
0.81080854 -0.51898384 1.7410001 7495237
0.80898952 -0.51361811 1.723 7099201
0.81176668 -0.51123333 1.715 7031861
0.81018859 -0.50616568 1.6980001 7228710
0.80848098 -0.5010981 1.6810001 7359765
0.81488478 -0.5010981 1.6810001 7294228
0.81347144 -0.49632859 1.6650001 7163924
0.8119362 -0.49155906 1.649 6968085
0.81424856 -0.48917428 1.641 6901538
0.81700003 -0.48708764 1.6340001 6967063
0.81516379 -0.4823181 1.618 7032866
0.8177743 -0.48023143 1.6110001 7032855
0.81982005 -0.47784668 1.603 7032852
0.82232004 -0.47576004 1.5960001 7033365
0.82840008 -0.47576004 1.5960001 7099429
0.82663721 -0.47128859 1.5810001 7164717
0.82897335 -0.46920195 1.5740001 7295543
0.83125621 -0.46711525 1.567 7164492
0.83348572 -0.46502858 1.5600001 8157760
0.83566195 -0.46294191 1.5530001 9277057
nan nan nan 7302421
nan nan nan 5863086
nan nan nan 9163255
nan nan nan 14089212
nan nan nan 15266039
nan nan nan 11379115
nan nan nan 6509363
nan nan nan 4079690
-1.1426638 -0.60471523 2.003 11915491
-1.1418334 -0.60833812 2.0150001 11850207
-1.1476657 -0.61558384 2.039 11718369
-1.1466067 -0.61920673 2.0510001 11587297
-1.1454563 -0.62282956 2.0630002 11456225
-1.1447659 -0.62675434 2.0760002 11520732
-1.1434286 -0.63037711 2.0880001 11717592
-1.156683 -0.64215147 2.1270001 11783125
-1.1556 -0.6460762 2.1400001 11848149
-1.1694313 -0.6584543 2.181 11782613
-1.1611228 -0.6584543 2.181 11651545
-1.1596857 -0.66237903 2.194 11584978
-1.1586745 -0.66660571 2.2080002 11584469
-1.1804781 -0.68411618 2.266 11585746
-1.179603 -0.68864477 2.2810001 11585243
-1.1791267 -0.69347531 2.2970002 11585243
-1.1703763 -0.69347531 2.2970002 11454426
-1.1692114 -0.69800377 2.312 11389147
-1.1679325 -0.70253241 2.3270001 11389659
-1.1670371 -0.70736295 2.3430002 11323871
-1.1581115 -0.70736295 2.3430002 11254722
-1.1732192 -0.72215623 2.3920002 11057863
-1.17238 -0.72728866 2.4090002 10794912
-1.1632029 -0.72728866 2.4090002 10532023
-1.1540258 -0.72728866 2.4090002 10202562
-1.1529278 -0.73242098 2.4260001 10001790
-1.1517 -0.73755336 2.4430001 9543309
-1.1587601 -0.74812007 2.4780002 8879976
-1.1493201 -0.74812007 2.4780002 8617573
-1.15644 -0.75898862 2.5140002 8485990
-1.1637419 -0.77015907 2.5510001 8419683
-1.1712145 -0.78163147 2.5890002 8484962
-1.1703229 -0.78766954 2.6090002 8487514
-1.1603838 -0.78766954 2.6090002 7964003
-1.1416259 -0.78163147 2.5890002 7830139
-1.1234572 -0.7758953 2.5700002 9344398
-1.1219001 -0.78163147 2.5890002 10592669
-1.1120373 -0.78163147 2.5890002 10724503
-1.1106887 -0.78766954 2.6090002 10923413
-1.1007496 -0.78766954 2.6090002 10924439
-1.0908105 -0.78766954 2.6090002 10989474
-1.0725858 -0.78163147 2.5890002 11185057
-1.0709325 -0.78766954 2.6090002 11250587
-1.0609934 -0.78766954 2.6090002 11317138
-1.0510544 -0.78766954 2.6090002 11381900
-1.0411154 -0.78766954 2.6090002 11447192
-1.0232714 -0.78163147 2.5890002 11381916
-1.0059714 -0.7758953 2.5700002 11316635
-0.99618107 -0.7758953 2.5700002 11382171
-0.99368292 -0.78163147 2.5890002 11513758
-0.98382008 -0.78163147 2.5890002 11644828
-0.97395724 -0.78163147 2.5890002 11644828
-0.97154194 -0.78766954 2.6090002 11645084
-0.96897435 -0.79370767 2.6290002 11776927
-0.96625435 -0.79974574 2.6490002 11776684
-0.95616293 -0.79974574 2.6490002 11842979
-0.9389286 -0.79370767 2.6290002 11842724
-0.92891341 -0.79370767 2.6290002 11711908
-0.91190767 -0.78766954 2.6090002 11581091
-0.90888292 -0.79370767 2.6290002 11581092
-0.89886773 -0.79370767 2.6290002 11581095
-0.88885242 -0.79370767 2.6290002 11646887
-0.8855229 -0.79974574 2.6490002 11581346
-0.87543148 -0.79974574 2.6490002 11514529
-0.86534005 -0.79974574 2.6490002 11383716
-0.86170578 -0.80578387 2.6690001 11319199
-0.85153812 -0.80578387 2.6690001 11252634
-0.84137046 -0.80578387 2.6690001 11382680
nan nan nan 11448220
nan nan nan 11382435
nan nan nan 11251630
nan nan nan 11186604
nan nan nan 11252138
nan nan nan 10333368
-0.40602002 -0.42478001 1.4070001 9807528
-0.3992362 -0.42327049 1.4020001 9804151
-0.38602859 -0.41481715 1.3740001 8940106
-0.37774572 -0.41149619 1.363 8481854
-0.37255332 -0.41149619 1.363 8217889
-0.36736095 -0.41149619 1.363 7889181
-0.36216858 -0.41149619 1.363 7429402
-0.35828573 -0.41300571 1.368 6703382
-0.3546229 -0.41481715 1.3740001 6308639
-0.35066003 -0.4163267 1.3790001 6375447
-0.34540668 -0.4163267 1.3790001 6440981
-0.34015334 -0.4163267 1.3790001 6244371
-0.33635715 -0.41813815 1.3850001 6047254
-0.33108097 -0.41813815 1.3850001 5784345
-0.32439333 -0.4163267 1.3790001 5390096
-0.31914002 -0.4163267 1.3790001 4996626
-0.31388667 -0.4163267 1.3790001 4668443
-0.30863333 -0.4163267 1.3790001 4471060
-0.30338001 -0.4163267 1.3790001 4470542
-0.29812667 -0.4163267 1.3790001 4601123
-0.29287335 -0.4163267 1.3790001 4797747
-0.28762001 -0.4163267 1.3790001 4733252
-0.28134286 -0.41481715 1.3740001 4208206
