# .PCD v0.7 - Point Cloud Data file format
VERSION 0.7
FIELDS x y z rgba
SIZE 4 4 4 4
TYPE F F F U
COUNT 1 1 1 1
WIDTH 1207
HEIGHT 1
VIEWPOINT 0 0 0 1 0 0 0
POINTS 1207
DATA ascii
1.0536048 -0.85374576 2.2810001 8816529
1.0553086 -0.84813142 2.266 8749454
1.063941 -0.84813142 2.266 8552060
1.0796734 -0.85374576 2.2810001 8421235
1.0883629 -0.85374576 2.2810001 8421239
1.089838 -0.84813142 2.266 8289157
1.0844123 -0.83727711 2.237 8157312
0.90043718 -0.68980855 1.8430001 7895683
0.90745813 -0.68980855 1.8430001 7372931
0.90951717 -0.68606573 1.8330001 7096412
0.912 -0.68269718 1.8240001 6835523
0.90887249 -0.67521149 1.8040001 6442796
0.9111762 -0.67184293 1.7950001 6245917
0.9134115 -0.66847438 1.7860001 6311442
0.91557813 -0.6651057 1.7770001 6442004
0.91767621 -0.66173714 1.7680001 6572562
0.91970575 -0.65836859 1.7590001 6637356
0.92166674 -0.65500003 1.7500001 6637337
0.92355907 -0.65163141 1.7410001 6441243
0.92538291 -0.64826286 1.7320001 6310180
0.92283338 -0.6419 1.715 6244905
nan nan nan 6244652
nan nan nan 6309670
nan nan nan 6244395
nan nan nan 6179117
nan nan nan 6244894
nan nan nan 6309651
nan nan nan 6375442
nan nan nan 6309395
-1.0456829 -0.6930486 1.8330001 10599634
-1.0387 -0.6930486 1.8330001 10599888
-1.0373458 -0.69682956 1.8430001 10534094
-1.0415058 -0.70439142 1.863 10469326
-1.0455134 -0.71195334 1.8830001 10469072
-1.04992 -0.71989334 1.904 10599634
-1.0486904 -0.72405237 1.9150001 10795734
-1.0528153 -0.73199242 1.9360001 10861785
-1.05138 -0.73615146 1.9470001 10666985
-1.043963 -0.73615146 1.9470001 10338013
-1.0482581 -0.74446958 1.9690001 10403273
-1.0465715 -0.74862862 1.9800001 10665433
-1.0453258 -0.75316572 1.9920001 10730970
-1.0434676 -0.75732476 2.003 10665432
-1.0482486 -0.76639909 2.0270002 10665430
-1.0528467 -0.77547342 2.0510001 10664920
-1.0577716 -0.78492576 2.0760002 10599894
-1.0559314 -0.78946286 2.0880001 10468565
-1.0545019 -0.7943781 2.1010001 10533846
-1.0529734 -0.7992934 2.1140001 10402518
-1.0577714 -0.80912381 2.1400001 10140117
-1.0559952 -0.81403905 2.1530001 10139600
-1.0546067 -0.81933236 2.1670001 10139085
-1.0531114 -0.82462567 2.181 10074058
-1.0380962 -0.81933236 2.1670001 9613781
-1.0364943 -0.82462567 2.181 9281194
-1.0343143 -0.82954097 2.194 8752235
-1.0395172 -0.84050572 2.223 7893580
-1.0375419 -0.84579903 2.237 7827811
-1.0423601 -0.85676378 2.266 7892839
-1.0405706 -0.86243528 2.2810001 7695725
-1.031881 -0.86243528 2.2810001 7433326
-1.0370972 -0.87415618 2.312 7436140
-1.0282894 -0.87415618 2.312 7568485
-1.0194819 -0.87415618 2.312 7500117
-1.0106742 -0.87415618 2.312 8492163
-1.0018666 -0.87415618 2.312 9672345
-0.9930591 -0.87415618 2.312 9805216
-0.98425138 -0.87415618 2.312 9937307
-0.97544384 -0.87415618 2.312 10068372
-0.97290766 -0.87982762 2.3270001 10198159
-0.9640429 -0.87982762 2.3270001 10329740
-0.95517814 -0.87982762 2.3270001 10527636
-0.94021332 -0.87415618 2.312 10528670
-0.93140572 -0.87415618 2.312 10398372
-0.92259812 -0.87415618 2.312 10333100
-0.91379052 -0.87415618 2.312 10332583
-0.91085428 -0.87982762 2.3270001 10398114
-0.90198958 -0.87982762 2.3270001 10462880
-0.88736761 -0.87415618 2.312 10462371
-0.87856001 -0.87415618 2.312 10593697
-0.86975235 -0.87415618 2.312 10593952
-0.86653054 -0.87982762 2.3270001 10659744
-0.85766578 -0.87982762 2.3270001 10726308
-0.84880096 -0.87982762 2.3270001 10660779
-0.8399362 -0.87982762 2.3270001 10660782
-0.8310715 -0.87982762 2.3270001 10726828
-0.82220674 -0.87982762 2.3270001 10726055
-0.81334192 -0.87982762 2.3270001 10660515
-0.80447716 -0.87982762 2.3270001 10530467
-0.79561245 -0.87982762 2.3270001 10529699
-0.78674763 -0.87982762 2.3270001 10593954
-0.77788287 -0.87982762 2.3270001 10724514
-0.76901811 -0.87982762 2.3270001 10858942
-0.76015341 -0.87982762 2.3270001 10858680
-0.75128859 -0.87982762 2.3270001 10924980
-0.74242383 -0.87982762 2.3270001 10859187
-0.73355907 -0.87982762 2.3270001 10989747
-0.72469431 -0.87982762 2.3270001 11055026
-0.71582955 -0.87982762 2.3270001 10989485
-0.70696479 -0.87982762 2.3270001 10858153
-0.69810003 -0.87982762 2.3270001 10857372
-0.68923527 -0.87982762 2.3270001 10791322
-0.68037051 -0.87982762 2.3270001 10725536
-0.66717714 -0.87415618 2.312 10659739
-0.66264099 -0.87982762 2.3270001 10462626
-0.65377623 -0.87982762 2.3270001 10332578
-0.64491147 -0.87982762 2.3270001 10333085
-0.63604671 -0.87982762 2.3270001 10463133
-0.62718189 -0.87982762 2.3270001 10527388
-0.61831719 -0.87982762 2.3270001 10461853
-0.60945243 -0.87982762 2.3270001 10396568
-0.6047172 -0.88587719 2.3430002 10200478
-0.59579146 -0.88587719 2.3430002 10201247
-0.58686572 -0.88587719 2.3430002 10264992
-0.57794005 -0.88587719 2.3430002 10199196
-0.56512856 -0.87982762 2.3270001 10068123
-0.5562638 -0.87982762 2.3270001 9871770
-0.5473991 -0.87982762 2.3270001 9739931
-0.53853434 -0.87982762 2.3270001 9739155
-0.52625525 -0.87415618 2.312 9672340
-0.51744759 -0.87415618 2.312 9474704
-0.50863999 -0.87415618 2.312 9146503
nan nan nan 8685436
nan nan nan 7829872
nan nan nan 7240571
-0.30837142 -0.56941146 1.506 7038844
-0.3026343 -0.56941146 1.506 7368563
-0.29689714 -0.56941146 1.506 7760976
-0.28980669 -0.56676477 1.4990001 7891265
-0.28409621 -0.56676477 1.4990001 7956026
-0.27968574 -0.56941146 1.506 7823410
-0.27394855 -0.56941146 1.506 7560227
-0.26928002 -0.57168001 1.5120001 7492885
-0.26352 -0.57168001 1.5120001 7559446
-0.25895333 -0.57432669 1.5190001 7560484
-0.252 -0.57168001 1.5120001 7626017
-0.24738002 -0.57432669 1.5190001 7756840
-0.24048001 -0.57168001 1.5120001 7822367
-0.23472001 -0.57168001 1.5120001 7757097
-0.22896002 -0.57168001 1.5120001 7757108
-0.22320001 -0.57168001 1.5120001 7691322
-0.21744001 -0.57168001 1.5120001 7691322
-0.21168001 -0.57168001 1.5120001 7626035
-0.20592001 -0.57168001 1.5120001 7690811
-0.20016001 -0.57168001 1.5120001 7756094
-0.19440001 -0.57168001 1.5120001 7690814
-0.18864 -0.57168001 1.5120001 7625014
-0.18288001 -0.57168001 1.5120001 7625268
-0.17641714 -0.56941146 1.506 7625249
-0.17068 -0.56941146 1.506 7559472
-0.16494286 -0.56941146 1.506 7559461
-0.15920572 -0.56941146 1.506 7559205
-0.15346856 -0.56941146 1.506 7559202
-0.14773144 -0.56941146 1.506 7559215
-0.1419943 -0.56941146 1.506 7624491
-0.13625714 -0.56941146 1.506 7558959
-0.13052 -0.56941146 1.506 7493680
-0.12478286 -0.56941146 1.506 7493682
-0.11904571 -0.56941146 1.506 7493686
-0.11330858 -0.56941146 1.506 7493947
-0.10757143 -0.56941146 1.506 7559223
-0.10183429 -0.56941146 1.506 7626032
-0.096097142 -0.56941146 1.506 7626797
-0.090360008 -0.56941146 1.506 7560249
-0.08462286 -0.56941146 1.506 7625782
-0.078885712 -0.56941146 1.506 7756850
-0.073148571 -0.56941146 1.506 7821616
-0.06741143 -0.56941146 1.506 7821615
-0.061674289 -0.56941146 1.506 7690798
-0.055937145 -0.56941146 1.506 7691319
-0.0502 -0.56941146 1.506 7691324
-0.044462856 -0.56941146 1.506 7691573
-0.038725715 -0.56941146 1.506 7757866
-0.032988571 -0.56941146 1.506 7691808
-0.027251428 -0.56941146 1.506 7691823
-0.021600001 -0.57168001 1.5120001 7626297
-0.01584 -0.57168001 1.5120001 7560243
-0.01008 -0.57168001 1.5120001 7559979
-0.0043200003 -0.57168001 1.5120001 7626024
0.00144 -0.57168001 1.5120001 7626288
0.0072000003 -0.57168001 1.5120001 7626549
0.012960001 -0.57168001 1.5120001 7626792
0.018806668 -0.57432669 1.5190001 7692585
0.024480002 -0.57168001 1.5120001 7757861
0.030240003 -0.57168001 1.5120001 7757340
0.036000002 -0.57168001 1.5120001 7690262
0.041760001 -0.57168001 1.5120001 7558936
0.047520004 -0.57168001 1.5120001 7492903
0.053280003 -0.57168001 1.5120001 7493154
0.059040003 -0.57168001 1.5120001 7558954
0.064800002 -0.57168001 1.5120001 7623987
0.070560001 -0.57168001 1.5120001 7623715
0.07632 -0.57168001 1.5120001 7624234
0.082080007 -0.57168001 1.5120001 7558944
0.087839998 -0.57168001 1.5120001 7559213
0.093600005 -0.57168001 1.5120001 7624744
0.099820003 -0.57432669 1.5190001 7756078
0.10512 -0.57168001 1.5120001 7691313
0.11139334 -0.57432669 1.5190001 7560231
0.11664001 -0.57168001 1.5120001 7493935
0.1224 -0.57168001 1.5120001 7428150
0.12816 -0.57168001 1.5120001 7362872
0.13392001 -0.57168001 1.5120001 7493936
0.13968 -0.57168001 1.5120001 7625007
0.14486286 -0.56941146 1.506 7559474
0.1506 -0.56941146 1.506 7428137
0.15696001 -0.57168001 1.5120001 7297056
0.16271999 -0.57168001 1.5120001 7296801
0.16848001 -0.57168001 1.5120001 7361561
0.17424001 -0.57168001 1.5120001 7427606
0.17928571 -0.56941146 1.506 7361832
0.18502286 -0.56941146 1.506 7361583
0.19076 -0.56941146 1.506 7427379
0.19649714 -0.56941146 1.506 7296301
0.2022343 -0.56941146 1.506 7230760
0.20797144 -0.56941146 1.506 7361821
0.21370858 -0.56941146 1.506 7361571
0.21944571 -0.56941146 1.506 7296814
0.22518286 -0.56941146 1.506 7297073
0.23092 -0.56941146 1.506 7362100
0.23665714 -0.56941146 1.506 7296564
0.24336001 -0.57168001 1.5120001 7296310
0.24912001 -0.57168001 1.5120001 7426867
0.25488001 -0.57168001 1.5120001 7426861
0.26064003 -0.57168001 1.5120001 7426846
0.26640001 -0.57168001 1.5120001 7492638
0.27215999 -0.57168001 1.5120001 7624470
0.27792001 -0.57168001 1.5120001 7625238
0.28368002 -0.57168001 1.5120001 7691296
0.28829142 -0.56941146 1.506 7691044
0.29402858 -0.56941146 1.506 7625778
0.29976571 -0.56941146 1.506 7625009
0.30672002 -0.57168001 1.5120001 7690554
0.31248 -0.57168001 1.5120001 7821881
0.31697714 -0.56941146 1.506 7822390
0.3227143 -0.56941146 1.506 7888178
0.32845145 -0.56941146 1.506 7888174
0.33552003 -0.57168001 1.5120001 7953700
0.34128001 -0.57168001 1.5120001 8019993
0.34704003 -0.57168001 1.5120001 8019226
0.35280004 -0.57168001 1.5120001 7953703
0.35856 -0.57168001 1.5120001 7953705
0.36432001 -0.57168001 1.5120001 8019244
0.37008002 -0.57168001 1.5120001 7888677
0.37584001 -0.57168001 1.5120001 7823150
0.38008571 -0.56941146 1.506 7823404
0.38402954 -0.56676477 1.4990001 7823130
0.38974002 -0.56676477 1.4990001 7823129
0.3954505 -0.56676477 1.4990001 7823134
0.4030343 -0.56941146 1.506 7757365
0.40877146 -0.56941146 1.506 7756838
0.41616002 -0.57168001 1.5120001 7821607
0.42192 -0.57168001 1.5120001 7821347
0.42768002 -0.57168001 1.5120001 7624754
0.43171999 -0.56941146 1.506 7362348
0.43542382 -0.56676477 1.4990001 7098919
0.43907434 -0.56411815 1.4920001 7031330
0.44475812 -0.56411815 1.4920001 7361819
0.45044193 -0.56411815 1.4920001 7494422
0.45429143 -0.56184953 1.4860001 7298357
0.4639762 -0.56676477 1.4990001 6705736
0.71972674 -0.8684848 2.2970002 7633766
0.73799145 -0.87982762 2.3270001 9081755
0.74204189 -0.87415618 2.312 9080972
0.75084955 -0.87415618 2.312 9015181
0.75965714 -0.87415618 2.312 8949641
0.76846474 -0.87415618 2.312 8884114
0.78231525 -0.87982762 2.3270001 8818580
0.79118007 -0.87982762 2.3270001 8949649
0.80004483 -0.87982762 2.3270001 9146252
0.80890954 -0.87982762 2.3270001 9211542
0.81250286 -0.87415618 2.312 9277594
0.82131052 -0.87415618 2.312 9278100
0.83011812 -0.87415618 2.312 9277585
0.83892572 -0.87415618 2.312 9147032
0.84773332 -0.87415618 2.312 9147552
0.85098386 -0.8684848 2.2970002 9148059
0.85973436 -0.8684848 2.2970002 9148313
0.8684848 -0.8684848 2.2970002 9148565
0.87723529 -0.8684848 2.2970002 9213330
0.88598579 -0.8684848 2.2970002 9409682
0.90057909 -0.87415618 2.312 9409168
0.90938669 -0.87415618 2.312 9343890
0.91819429 -0.87415618 2.312 9409417
0.92700189 -0.87415618 2.312 9407627
0.93580955 -0.87415618 2.312 9275789
0.94461715 -0.87415618 2.312 9211542
0.95342475 -0.87415618 2.312 9211540
0.96223235 -0.87415618 2.312 9277334
0.97104001 -0.87415618 2.312 9212569
0.97984755 -0.87415618 2.312 9146773
0.98865527 -0.87415618 2.312 9081236
0.99099153 -0.8684848 2.2970002 9015695
0.99974203 -0.8684848 2.2970002 9015691
1.0014676 -0.86243528 2.2810001 9080969
1.0101572 -0.86243528 2.2810001 9080970
1.0188468 -0.86243528 2.2810001 9080723
1.0275363 -0.86243528 2.2810001 9080470
1.0362258 -0.86243528 2.2810001 9014937
1.0449152 -0.86243528 2.2810001 8949400
1.0536048 -0.86243528 2.2810001 8817555
1.0622944 -0.86243528 2.2810001 8750980
1.0709839 -0.86243528 2.2810001 8487039
1.0796734 -0.86243528 2.2810001 8224381
1.0883629 -0.86243528 2.2810001 8158854
1.089838 -0.85676378 2.266 8093578
1.0916839 -0.85147053 2.2520001 8026762
1.1002629 -0.85147053 2.2520001 7895431
0.90745813 -0.69682956 1.8430001 7503238
0.90951717 -0.6930486 1.8330001 7167070
0.912 -0.68964577 1.8240001 6769740
0.90887249 -0.68208385 1.8040001 6442038
0.9111762 -0.67868102 1.7950001 6310959
0.9134115 -0.67527813 1.7860001 6310680
0.91557813 -0.6718753 1.7770001 6310419
0.91300476 -0.66506952 1.7590001 6376211
0.91970575 -0.66506952 1.7590001 6441506
0.92166674 -0.66166669 1.7500001 6506274
0.92355907 -0.6582638 1.7410001 6440980
0.92538291 -0.65486103 1.7320001 6375715
0.92283338 -0.64843339 1.715 6244144
nan nan nan 6113334
nan nan nan 6178859
nan nan nan 6244397
nan nan nan 6309412
nan nan nan 6244371
nan nan nan 6113298
nan nan nan 6113300
nan nan nan 6179099
-1.0405486 -0.69659436 1.8240001 10599894
-1.0387 -0.70003146 1.8330001 10599893
-1.0317171 -0.70003146 1.8330001 10534611
-1.0303248 -0.70385051 1.8430001 10534863
-1.0455134 -0.7191267 1.8830001 10600656
-1.04992 -0.72714669 1.904 10665683
-1.0486904 -0.73134762 1.9150001 10797270
-1.0528153 -0.73936766 1.9360001 10798305
-1.0454401 -0.73936766 1.9360001 10668258
-1.043963 -0.74356866 1.9470001 10339044
-1.0365458 -0.74356866 1.9470001 10403555
-1.0407572 -0.75197047 1.9690001 10664926
-1.0453258 -0.76075435 1.9920001 10665435
-1.0497191 -0.7695381 2.0150001 10599641
-1.0544543 -0.77870381 2.039 10600410
-1.0528467 -0.78328669 2.0510001 10534359
-1.0511477 -0.78786957 2.0630002 10403288
-1.0559314 -0.79741716 2.0880001 10337752
-1.0545019 -0.80238193 2.1010001 10337240
-1.0529734 -0.8073467 2.1140001 10336983
-1.0577714 -0.81727618 2.1400001 10270421
-1.0559952 -0.82224095 2.1530001 10269903
-1.0546067 -0.82758766 2.1670001 10269905
-1.0463514 -0.82758766 2.1670001 10204624
-1.0380962 -0.82758766 2.1670001 9875656
-1.0364943 -0.83293426 2.181 9545382
-1.0343143 -0.83789903 2.194 9278876
-1.0325029 -0.8432458 2.2080002 8554370
-1.044499 -0.86004955 2.2520001 7959150
-1.03592 -0.86004955 2.2520001 7958115
-1.0337276 -0.8653962 2.266 7760997
-1.031881 -0.8711248 2.2810001 7433329
-1.0303687 -0.87723529 2.2970002 7369072
-1.0282894 -0.88296378 2.312 7633004
-1.0194819 -0.88296378 2.312 7564895
-1.0106742 -0.88296378 2.312 8488594
-1.0018666 -0.88296378 2.312 9606033
-0.9930591 -0.88296378 2.312 9805726
-0.98425138 -0.88296378 2.312 10003093
-0.98177242 -0.88869244 2.3270001 10067856
-0.97290766 -0.88869244 2.3270001 10199436
-0.9640429 -0.88869244 2.3270001 10396302
-0.94902098 -0.88296378 2.312 10527123
-0.94021332 -0.88296378 2.312 10527896
-0.93140572 -0.88296378 2.312 10397600
-0.92259812 -0.88296378 2.312 10398376
-0.9197191 -0.88869244 2.3270001 10463403
-0.91085428 -0.88869244 2.3270001 10463400
-0.90198958 -0.88869244 2.3270001 10332330
-0.88736761 -0.88296378 2.312 10397095
-0.88426006 -0.88869244 2.3270001 10462114
-0.87539524 -0.88869244 2.3270001 10527903
-0.86653054 -0.88869244 2.3270001 10593953
-0.86356294 -0.89480293 2.3430002 10593962
-0.85463721 -0.89480293 2.3430002 10594730
-0.84571147 -0.89480293 2.3430002 10660776
-0.83678573 -0.89480293 2.3430002 10726060
-0.82786006 -0.89480293 2.3430002 10726309
-0.81893432 -0.89480293 2.3430002 10726305
-0.81000859 -0.89480293 2.3430002 10529703
-0.79561245 -0.88869244 2.3270001 10463657
-0.78674763 -0.88869244 2.3270001 10462882
-0.7832315 -0.89480293 2.3430002 10528933
-0.77430576 -0.89480293 2.3430002 10662851
-0.76538002 -0.89480293 2.3430002 10794171
-0.75645429 -0.89480293 2.3430002 10859703
-0.74752861 -0.89480293 2.3430002 10793908
-0.73860294 -0.89480293 2.3430002 10859185
-0.72469431 -0.88869244 2.3270001 10858670
-0.71582955 -0.88869244 2.3270001 10857647
-0.71182573 -0.89480293 2.3430002 10792626
-0.69810003 -0.88869244 2.3270001 10791334
-0.68923527 -0.88869244 2.3270001 10725537
-0.68037051 -0.88869244 2.3270001 10593948
-0.67150575 -0.88869244 2.3270001 10528923
-0.66264099 -0.88869244 2.3270001 10397857
-0.65377623 -0.88869244 2.3270001 10332067
-0.64491147 -0.88869244 2.3270001 10266785
-0.63604671 -0.88869244 2.3270001 10397341
-0.62718189 -0.88869244 2.3270001 10461853
-0.62256861 -0.89480293 2.3430002 10396058
-0.61364293 -0.89480293 2.3430002 10199450
-0.60884672 -0.90091342 2.3590002 10069148
-0.59579146 -0.89480293 2.3430002 10004386
-0.58686572 -0.89480293 2.3430002 10135714
-0.57794005 -0.89480293 2.3430002 10199971
-0.56901431 -0.89480293 2.3430002 10133667
-0.5562638 -0.88869244 2.3270001 9936804
-0.5473991 -0.88869244 2.3270001 9805726
-0.53853434 -0.88869244 2.3270001 9805206
-0.52625525 -0.88296378 2.312 9672591
-0.52080476 -0.88869244 2.3270001 9408910
nan nan nan 9014917
nan nan nan 8687228
nan nan nan 7500888
nan nan nan 6781550
-0.30960003 -0.57744002 1.5120001 7105138
-0.3026343 -0.57514858 1.506 7434605
-0.29413715 -0.56980193 1.4920001 7695705
-0.28845334 -0.56980193 1.4920001 7891520
-0.28163239 -0.56751049 1.4860001 7956283
-0.27708575 -0.56980193 1.4920001 7757874
-0.27267525 -0.57247525 1.4990001 7625015
-0.26821142 -0.57514858 1.506 7558710
-0.2624743 -0.57514858 1.506 7690547
-0.25776002 -0.57744002 1.5120001 7756070
-0.25100002 -0.57514858 1.506 7691301
-0.24526286 -0.57514858 1.506 7756827
-0.23952572 -0.57514858 1.506 7756569
-0.23378858 -0.57514858 1.506 7756846
-0.22896002 -0.57744002 1.5120001 7756846
-0.22320001 -0.57744002 1.5120001 7822128
-0.21657714 -0.57514858 1.506 7822387
-0.21084 -0.57514858 1.506 7691573
-0.20510286 -0.57514858 1.506 7691319
-0.19936571 -0.57514858 1.506 7691066
-0.19362858 -0.57514858 1.506 7625269
-0.18789144 -0.57514858 1.506 7625785
-0.1821543 -0.57514858 1.506 7560242
-0.17641714 -0.57514858 1.506 7559724
-0.16988668 -0.57247525 1.4990001 7494445
-0.1641762 -0.57247525 1.4990001 7428661
-0.15920572 -0.57514858 1.506 7559215
-0.15346856 -0.57514858 1.506 7559215
-0.14773144 -0.57514858 1.506 7559211
-0.1419943 -0.57514858 1.506 7624751
-0.13625714 -0.57514858 1.506 7559208
-0.13052 -0.57514858 1.506 7624741
-0.12420286 -0.57247525 1.4990001 7559215
-0.11904571 -0.57514858 1.506 7493941
-0.11330858 -0.57514858 1.506 7493945
-0.10757143 -0.57514858 1.506 7493943
-0.10183429 -0.57514858 1.506 7559982
-0.096097142 -0.57514858 1.506 7560992
-0.090360008 -0.57514858 1.506 7495728
-0.08462286 -0.57514858 1.506 7560756
-0.078519054 -0.57247525 1.4990001 7626031
-0.072808579 -0.57247525 1.4990001 7691305
-0.067098096 -0.57247525 1.4990001 7691292
-0.061674289 -0.57514858 1.506 7626009
-0.055937145 -0.57514858 1.506 7691562
-0.0502 -0.57514858 1.506 7691316
-0.044462856 -0.57514858 1.506 7757112
-0.038725715 -0.57514858 1.506 7757359
-0.032988571 -0.57514858 1.506 7691818
-0.027251428 -0.57514858 1.506 7626287
-0.021600001 -0.57744002 1.5120001 7691579
-0.015777143 -0.57514858 1.506 7691831
-0.01004 -0.57514858 1.506 7626290
-0.0043028574 -0.57514858 1.506 7626288
0.0014342858 -0.57514858 1.506 7692343
0.0071714288 -0.57514858 1.506 7692091
0.012908572 -0.57514858 1.506 7626809
0.018645715 -0.57514858 1.506 7691818
0.024269525 -0.57247525 1.4990001 7757611
0.03012 -0.57514858 1.506 7823652
0.035857145 -0.57514858 1.506 7691031
0.041594286 -0.57514858 1.506 7493142
0.04733143 -0.57514858 1.506 7493143
0.053068571 -0.57514858 1.506 7493157
0.058805715 -0.57514858 1.506 7492909
0.06454286 -0.57514858 1.506 7492665
0.070280001 -0.57514858 1.506 7558708
0.076017141 -0.57514858 1.506 7624491
0.082080007 -0.57744002 1.5120001 7559210
0.08749143 -0.57514858 1.506 7559197
0.093600005 -0.57744002 1.5120001 7624995
0.099360004 -0.57744002 1.5120001 7756324
0.10512 -0.57744002 1.5120001 7756578
0.11088 -0.57744002 1.5120001 7625505
0.11617714 -0.57514858 1.506 7559204
0.1219143 -0.57514858 1.506 7428383
0.12765142 -0.57514858 1.506 7363383
0.13338856 -0.57514858 1.506 7428409
0.13847904 -0.57247525 1.4990001 7493950
0.14418952 -0.57247525 1.4990001 7493945
0.1499 -0.57247525 1.4990001 7428653
0.15561049 -0.57247525 1.4990001 7362581
0.16132095 -0.57247525 1.4990001 7362327
0.16703144 -0.57247525 1.4990001 7362587
0.17274192 -0.57247525 1.4990001 7362076
0.17761905 -0.56980193 1.4920001 7361824
0.18416286 -0.57247525 1.4990001 7362341
0.18987334 -0.57247525 1.4990001 7231281
0.19558382 -0.57247525 1.4990001 7034927
0.20129429 -0.57247525 1.4990001 7034669
0.20700477 -0.57247525 1.4990001 7296807
0.21271525 -0.57247525 1.4990001 7426851
0.21842572 -0.57247525 1.4990001 7361580
0.2241362 -0.57247525 1.4990001 7297068
0.22984667 -0.57247525 1.4990001 7296800
0.23665714 -0.57514858 1.506 7296549
0.24239428 -0.57514858 1.506 7361839
0.24813142 -0.57514858 1.506 7427129
0.25386858 -0.57514858 1.506 7492136
0.25839904 -0.57247525 1.4990001 7426836
0.26534286 -0.57514858 1.506 7492376
0.26982 -0.57247525 1.4990001 7558429
0.27553049 -0.57247525 1.4990001 7690529
0.28124097 -0.57247525 1.4990001 7756567
0.28695142 -0.57247525 1.4990001 7691293
0.29266191 -0.57247525 1.4990001 7625761
0.29976571 -0.57514858 1.506 7559725
0.30550286 -0.57514858 1.506 7625009
0.31123999 -0.57514858 1.506 7756343
0.31697714 -0.57514858 1.506 7887148
0.3227143 -0.57514858 1.506 8018725
0.32845145 -0.57514858 1.506 8018979
0.33418858 -0.57514858 1.506 8085034
0.33834574 -0.57247525 1.4990001 8085538
0.34566286 -0.57514858 1.506 8019758
0.35139999 -0.57514858 1.506 7953710
0.35713714 -0.57514858 1.506 7953456
0.3628743 -0.57514858 1.506 7887910
0.36861145 -0.57514858 1.506 7888433
0.37434858 -0.57514858 1.506 7823646
0.37831905 -0.57247525 1.4990001 7888665
0.38402954 -0.57247525 1.4990001 7888433
0.38974002 -0.57247525 1.4990001 7888438
0.3954505 -0.57247525 1.4990001 7888444
0.40116099 -0.57247525 1.4990001 7888186
0.40687144 -0.57247525 1.4990001 7822390
0.41450858 -0.57514858 1.506 7821361
0.42024574 -0.57514858 1.506 7886897
0.42598286 -0.57514858 1.506 7755568
0.43171999 -0.57514858 1.506 7427888
0.43542382 -0.57247525 1.4990001 7099926
0.43907434 -0.56980193 1.4920001 6899740
0.44475812 -0.56980193 1.4920001 7098650
0.45044193 -0.56980193 1.4920001 7362848
0.45429143 -0.56751049 1.4860001 7429174
0.46180955 -0.56980193 1.4920001 7166535
0.46968669 -0.57247525 1.4990001 7693644
0.74306577 -0.89480293 2.3430002 8753569
0.75199151 -0.89480293 2.3430002 9015687
0.76091719 -0.89480293 2.3430002 8949384
0.76458579 -0.88869244 2.3270001 9015183
0.77345049 -0.88869244 2.3270001 8950159
0.78231525 -0.88869244 2.3270001 8884629
0.79118007 -0.88869244 2.3270001 9015446
0.80004483 -0.88869244 2.3270001 9212057
0.80890954 -0.88869244 2.3270001 9277595
0.8177743 -0.88869244 2.3270001 9343127
0.82663912 -0.88869244 2.3270001 9342869
0.83550388 -0.88869244 2.3270001 9343123
0.84436858 -0.88869244 2.3270001 9278106
0.8532334 -0.88869244 2.3270001 9213086
0.85654098 -0.88296378 2.312 9279133
0.86534858 -0.88296378 2.312 9279384
0.87415618 -0.88296378 2.312 9279125
0.88296378 -0.88296378 2.312 9213585
0.89177138 -0.88296378 2.312 9147020
0.90642196 -0.88869244 2.3270001 9147275
0.90938669 -0.88296378 2.312 9082253
0.91819429 -0.88296378 2.312 9213329
0.92700189 -0.88296378 2.312 9342609
0.941881 -0.88869244 2.3270001 9341333
0.94461715 -0.88296378 2.312 9212061
0.95342475 -0.88296378 2.312 9212057
0.96223235 -0.88296378 2.312 9212309
0.97104001 -0.88296378 2.312 9147288
0.97984755 -0.88296378 2.312 9081753
0.98865527 -0.88296378 2.312 9081496
0.99099153 -0.87723529 2.2970002 8950164
0.99974203 -0.87723529 2.2970002 8950161
1.0084925 -0.87723529 2.2970002 8949645
1.0172429 -0.87723529 2.2970002 9015177
1.0188468 -0.8711248 2.2810001 9015434
1.0275363 -0.8711248 2.2810001 8949906
1.0434943 -0.87723529 2.2970002 9014931
1.0449152 -0.8711248 2.2810001 9014419
1.0536048 -0.8711248 2.2810001 8883088
1.0622944 -0.8711248 2.2810001 8816514
1.0709839 -0.8711248 2.2810001 8618365
1.0796734 -0.8711248 2.2810001 8223615
1.0883629 -0.8711248 2.2810001 8092550
1.089838 -0.8653962 2.266 8027539
1.0916839 -0.86004955 2.2520001 7961739
1.1002629 -0.86004955 2.2520001 7960964
1.1088419 -0.86004955 2.2520001 7763834
nan nan nan 7369600
0.90200007 -0.68895626 1.8040001 6640465
0.90887249 -0.68895626 1.8040001 6310461
0.9111762 -0.6855191 1.7950001 6441255
0.9134115 -0.68208194 1.7860001 6441235
0.92021531 -0.68208194 1.7860001 6310161
0.91300476 -0.67177045 1.7590001 6244882
0.91970575 -0.67177045 1.7590001 6244627
0.91692668 -0.66489625 1.7410001 6309651
0.92355907 -0.66489625 1.7410001 6309651
0.92538291 -0.66145909 1.7320001 6310424
0.92713815 -0.65802193 1.723 6243634
nan nan nan 6112822
nan nan nan 6113335
nan nan nan 6244402
nan nan nan 6244384
nan nan nan 6179090
nan nan nan 6113554
nan nan nan 6113811
nan nan nan 6179348
-1.0405486 -0.70354289 1.8240001 10730965
-1.0387 -0.70701432 1.8330001 10665943
-1.0486029 -0.71858573 1.863 10665941
-1.0415058 -0.71858573 1.863 10665684
-1.0399611 -0.72244292 1.8730001 10730451
-1.04992 -0.73439997 1.904 10795734
-1.0486904 -0.73864287 1.9150001 10732239
-1.0528153 -0.74674284 1.9360001 10669034
-1.0454401 -0.74674284 1.9360001 10668514
-1.043963 -0.75098574 1.9470001 10667232
-1.0365458 -0.75098574 1.9470001 10731742
-1.0407572 -0.75947148 1.9690001 10730715
-1.0453258 -0.76834291 1.9920001 10664924
-1.0497191 -0.77721429 2.0150001 10665435
-1.0544543 -0.78647149 2.039 10534364
-1.0528467 -0.79110003 2.0510001 10403294
-1.0577716 -0.80074292 2.0760002 10272220
-1.0559314 -0.80537146 2.0880001 10206680
-1.0545019 -0.8103857 2.1010001 10140632
-1.0464981 -0.8103857 2.1010001 10205910
-1.0513458 -0.8204143 2.1270001 10270930
-1.0559952 -0.83044285 2.1530001 10270669
-1.0546067 -0.83584285 2.1670001 10204621
-1.0531114 -0.84124285 2.181 10007756
-1.0510305 -0.84625715 2.194 9745864
-1.0426724 -0.84625715 2.194 9416902
-1.0409143 -0.85165721 2.2080002 9149321
-1.0325029 -0.85165721 2.2080002 8819329
-1.044499 -0.86862862 2.2520001 8352608
-1.03592 -0.86862862 2.2520001 7958376
-1.0405706 -0.87981433 2.2810001 7761253
-1.0391191 -0.88598579 2.2970002 7564649
-1.0370972 -0.89177138 2.312 7433835
-1.034961 -0.8975572 2.3270001 7763567
-1.0260963 -0.8975572 2.3270001 7828602
-1.0106742 -0.89177138 2.312 8087936
-1.0018666 -0.89177138 2.312 9214109
-0.9930591 -0.89177138 2.312 9936278
-0.99063718 -0.8975572 2.3270001 9871513
-0.98177242 -0.8975572 2.3270001 9871509
-0.97290766 -0.8975572 2.3270001 10067854
-0.9640429 -0.8975572 2.3270001 10265232
-0.95517814 -0.8975572 2.3270001 10461838
-0.94021332 -0.89177138 2.312 10527126
-0.93140572 -0.89177138 2.312 10462357
-0.92858386 -0.8975572 2.3270001 10398363
-0.9197191 -0.8975572 2.3270001 10463136
-0.91711724 -0.90372866 2.3430002 10397860
-0.9081915 -0.90372866 2.3430002 10332329
-0.89312482 -0.8975572 2.3270001 10267305
-0.88426006 -0.8975572 2.3270001 10266532
-0.88141429 -0.90372866 2.3430002 10397092
-0.87248868 -0.90372866 2.3430002 10462375
-0.86946011 -0.90990007 2.3590002 10528172
-0.86047339 -0.90990007 2.3590002 10659752
-0.85148674 -0.90990007 2.3590002 10725795
-0.84250003 -0.90990007 2.3590002 10725289
-0.83351338 -0.90990007 2.3590002 10660263
-0.81893432 -0.90372866 2.3430002 10596271
-0.81000859 -0.90372866 2.3430002 10465206
-0.80108291 -0.90372866 2.3430002 10464177
-0.79215723 -0.90372866 2.3430002 10529183
-0.7832315 -0.90372866 2.3430002 10528671
-0.77430576 -0.90372866 2.3430002 10728105
-0.76538002 -0.90372866 2.3430002 10858922
-0.76162004 -0.90990007 2.3590002 10793134
-0.75263339 -0.90990007 2.3590002 10792884
-0.73860294 -0.90372866 2.3430002 10858165
-0.7296772 -0.90372866 2.3430002 10792621
-0.71582955 -0.8975572 2.3270001 10792881
-0.71182573 -0.90372866 2.3430002 10792629
-0.70290005 -0.90372866 2.3430002 10726064
-0.69397432 -0.90372866 2.3430002 10594725
-0.68504858 -0.90372866 2.3430002 10528930
-0.6761229 -0.90372866 2.3430002 10528682
-0.66719723 -0.90372866 2.3430002 10528934
-0.65827149 -0.90372866 2.3430002 10398115
-0.64934576 -0.90372866 2.3430002 10266527
-0.64042002 -0.90372866 2.3430002 10331553
-0.63149428 -0.90372866 2.3430002 10396564
-0.62256861 -0.90372866 2.3430002 10330520
-0.61364293 -0.90372866 2.3430002 10264989
-0.60884672 -0.90990007 2.3590002 10199709
-0.59986001 -0.90990007 2.3590002 10069148
-0.58686572 -0.90372866 2.3430002 10070173
-0.57794005 -0.90372866 2.3430002 10134179
-0.56901431 -0.90372866 2.3430002 10133414
-0.56008857 -0.90372866 2.3430002 10001830
-0.55492669 -0.90990007 2.3590002 9870751
-0.54223722 -0.90372866 2.3430002 9740183
-0.53331149 -0.90372866 2.3430002 9607573
-0.52796674 -0.90990007 2.3590002 9278098
-0.51898009 -0.90990007 2.3590002 8949905
nan nan nan 8556697
nan nan nan 7564923
nan nan nan 7174014
-0.30837142 -0.58088571 1.506 7434094
-0.3026343 -0.58088571 1.506 7565405
-0.29413715 -0.57548577 1.4920001 7695446
-0.28729334 -0.57317144 1.4860001 7826001
-0.28163239 -0.57317144 1.4860001 7825472
-0.27708575 -0.57548577 1.4920001 7759163
-0.27267525 -0.57818574 1.4990001 7690036
-0.26821142 -0.58088571 1.506 7623989
-0.2624743 -0.58088571 1.506 7755553
-0.25673714 -0.58088571 1.506 7755305
-0.24983335 -0.57818574 1.4990001 7690799
-0.24412286 -0.57818574 1.4990001 7691561
-0.23952572 -0.58088571 1.506 7757363
-0.23378858 -0.58088571 1.506 7756600
-0.22805144 -0.58088571 1.506 7756856
-0.2223143 -0.58088571 1.506 7757103
-0.21657714 -0.58088571 1.506 7757103
-0.21084 -0.58088571 1.506 7691826
-0.20510286 -0.58088571 1.506 7626292
-0.19843905 -0.57818574 1.4990001 7560502
-0.19272858 -0.57818574 1.4990001 7560495
-0.1870181 -0.57818574 1.4990001 7626034
-0.18130763 -0.57818574 1.4990001 7559991
-0.17559716 -0.57818574 1.4990001 7494200
-0.16988668 -0.57818574 1.4990001 7363384
-0.1641762 -0.57818574 1.4990001 7428152
-0.15846571 -0.57818574 1.4990001 7493692
-0.15346856 -0.58088571 1.506 7559732
-0.14773144 -0.58088571 1.506 7626034
-0.1419943 -0.58088571 1.506 7624742
-0.13625714 -0.58088571 1.506 7559199
-0.12991334 -0.57818574 1.4990001 7624745
-0.12362287 -0.57548577 1.4920001 7624751
-0.11793905 -0.57548577 1.4920001 7559472
-0.11225525 -0.57548577 1.4920001 7559470
-0.10707143 -0.57818574 1.4990001 7624737
-0.10136096 -0.57818574 1.4990001 7625506
-0.095203809 -0.57548577 1.4920001 7626027
-0.089940004 -0.57818574 1.4990001 7560751
-0.083836198 -0.57548577 1.4920001 7560506
-0.078152388 -0.57548577 1.4920001 7559729
-0.072808579 -0.57818574 1.4990001 7559981
-0.067098096 -0.57818574 1.4990001 7560475
-0.061387621 -0.57818574 1.4990001 7626013
-0.055677146 -0.57818574 1.4990001 7691310
-0.049966671 -0.57818574 1.4990001 7691322
-0.044256192 -0.57818574 1.4990001 7756596
-0.038545717 -0.57818574 1.4990001 7822385
-0.032835238 -0.57818574 1.4990001 7757352
-0.027124763 -0.57818574 1.4990001 7691573
-0.021514285 -0.58088571 1.506 7757378
-0.015777143 -0.58088571 1.506 7757622
-0.01004 -0.58088571 1.506 7692348
-0.0042828573 -0.57818574 1.4990001 7691837
0.0014276191 -0.57818574 1.4990001 7757623
0.0071380953 -0.57818574 1.4990001 7823159
0.012848573 -0.57818574 1.4990001 7757350
0.018559048 -0.57818574 1.4990001 7691807
0.024156192 -0.57548577 1.4920001 7691553
0.029840002 -0.57548577 1.4920001 7690519
0.035523813 -0.57548577 1.4920001 7494166
0.041207619 -0.57548577 1.4920001 7362841
0.047111429 -0.57818574 1.4990001 7362071
0.052821904 -0.57818574 1.4990001 7427607
0.058532383 -0.57818574 1.4990001 7427605
0.064242855 -0.57818574 1.4990001 7493158
0.069953337 -0.57818574 1.4990001 7624240
0.075663812 -0.57818574 1.4990001 7623983
0.081374288 -0.57818574 1.4990001 7558955
0.087084763 -0.57818574 1.4990001 7559190
0.092795245 -0.57818574 1.4990001 7624987
0.09850572 -0.57818574 1.4990001 7756333
0.10421619 -0.57818574 1.4990001 7691304
0.10992667 -0.57818574 1.4990001 7625518
0.11563715 -0.57818574 1.4990001 7494168
0.12134763 -0.57818574 1.4990001 7363097
0.1270581 -0.57818574 1.4990001 7362602
0.13276859 -0.57818574 1.4990001 7427890
0.13783239 -0.57548577 1.4920001 7493428
0.1435162 -0.57548577 1.4920001 7493936
0.14920001 -0.57548577 1.4920001 7494184
0.15488382 -0.57548577 1.4920001 7428119
0.16056763 -0.57548577 1.4920001 7428885
0.16625144 -0.57548577 1.4920001 7428374
0.17193525 -0.57548577 1.4920001 7427861
0.17761905 -0.57548577 1.4920001 7493163
0.18330288 -0.57548577 1.4920001 7362350
0.18898669 -0.57548577 1.4920001 7231534
0.19558382 -0.57818574 1.4990001 7166255
0.20129429 -0.57818574 1.4990001 7166000
0.20700477 -0.57818574 1.4990001 7361582
0.21271525 -0.57818574 1.4990001 7492904
0.21740572 -0.57548577 1.4920001 7492647
0.22308955 -0.57548577 1.4920001 7427872
0.22877336 -0.57548577 1.4920001 7362582
0.23555715 -0.57818574 1.4990001 7427609
0.24126762 -0.57818574 1.4990001 7427117
0.24697812 -0.57818574 1.4990001 7492402
0.25386858 -0.58088571 1.506 7557675
0.25839904 -0.57818574 1.4990001 7492375
0.26534286 -0.58088571 1.506 7492638
0.26982 -0.57818574 1.4990001 7558447
0.27424383 -0.57548577 1.4920001 7690524
0.27992764 -0.57548577 1.4920001 7691543
0.28561145 -0.57548577 1.4920001 7691800
0.29129526 -0.57548577 1.4920001 7626031
0.29697907 -0.57548577 1.4920001 7560241
0.30266288 -0.57548577 1.4920001 7559734
0.30979335 -0.57818574 1.4990001 7756081
0.3140305 -0.57548577 1.4920001 7952678
0.31971431 -0.57548577 1.4920001 7953437
0.32539812 -0.57548577 1.4920001 7953432
0.33108193 -0.57548577 1.4920001 7953689
0.33676574 -0.57548577 1.4920001 8019738
0.34244955 -0.57548577 1.4920001 8018967
0.34813336 -0.57548577 1.4920001 8018984
0.35381716 -0.57548577 1.4920001 8018975
0.35950097 -0.57548577 1.4920001 7953455
0.36518478 -0.57548577 1.4920001 7953963
0.37086859 -0.57548577 1.4920001 7954201
0.3765524 -0.57548577 1.4920001 7954198
0.38223621 -0.57548577 1.4920001 7953945
0.38792002 -0.57548577 1.4920001 7888175
0.39360383 -0.57548577 1.4920001 7887925
0.40116099 -0.57818574 1.4990001 7887930
0.40687144 -0.57818574 1.4990001 7821887
0.41258192 -0.57818574 1.4990001 7821876
0.4182924 -0.57818574 1.4990001 7821103
0.42400289 -0.57818574 1.4990001 7755823
0.42770669 -0.57548577 1.4920001 7559217
0.4333905 -0.57548577 1.4920001 7165986
0.43907434 -0.57548577 1.4920001 6900275
0.44296953 -0.57317144 1.4860001 6900275
0.44863048 -0.57317144 1.4860001 7165736
0.45429143 -0.57317144 1.4860001 7297587
0.45995238 -0.57317144 1.4860001 7363389
0.46561334 -0.57317144 1.4860001 7165496
0.74306577 -0.90372866 2.3430002 8229012
0.75199151 -0.90372866 2.3430002 9211266
0.76091719 -0.90372866 2.3430002 8884362
0.76984292 -0.90372866 2.3430002 8950162
0.77345049 -0.8975572 2.3270001 8950418
0.78231525 -0.8975572 2.3270001 8950422
0.79118007 -0.8975572 2.3270001 9080983
0.80004483 -0.8975572 2.3270001 9277085
0.80890954 -0.8975572 2.3270001 9343133
0.8177743 -0.8975572 2.3270001 9343382
0.83232296 -0.90372866 2.3430002 9343126
0.84124857 -0.90372866 2.3430002 9343381
0.85017431 -0.90372866 2.3430002 9409176
0.8532334 -0.8975572 2.3270001 9409688
0.86209816 -0.8975572 2.3270001 9409687
0.87096292 -0.8975572 2.3270001 9475477
0.87982762 -0.8975572 2.3270001 9409687
0.88869244 -0.8975572 2.3270001 9277589
0.8975572 -0.8975572 2.3270001 9146767
0.90642196 -0.8975572 2.3270001 9015682
0.91528672 -0.8975572 2.3270001 9015948
0.92415148 -0.8975572 2.3270001 9147280
0.93301624 -0.8975572 2.3270001 9276296
0.941881 -0.8975572 2.3270001 9276560
0.95074576 -0.8975572 2.3270001 9212302
0.95342475 -0.89177138 2.312 9146005
0.96847528 -0.8975572 2.3270001 9146772
0.97104001 -0.89177138 2.312 9146773
0.98620474 -0.8975572 2.3270001 9146772
0.99506962 -0.8975572 2.3270001 9212056
0.99746293 -0.89177138 2.312 9147033
1.0062704 -0.89177138 2.312 9015447
1.0084925 -0.88598579 2.2970002 9080725
1.0172429 -0.88598579 2.2970002 9080726
1.0259935 -0.88598579 2.2970002 9015187
1.0275363 -0.87981433 2.2810001 8950162
1.0434943 -0.88598579 2.2970002 8949908
1.0522448 -0.88598579 2.2970002 8883085
1.0609952 -0.88598579 2.2970002 8817286
1.0697458 -0.88598579 2.2970002 8750976
1.0784963 -0.88598579 2.2970002 8553595
1.0872468 -0.88598579 2.2970002 8289400
1.0883629 -0.87981433 2.2810001 8158084
1.0970525 -0.87981433 2.2810001 8158352
1.0984704 -0.87402862 2.266 8027274
1.1071029 -0.87402862 2.266 7961976
1.123121 -0.87981433 2.2810001 8026220
nan nan nan 7895646
0.90700006 -0.69968575 1.8140001 6971236
0.90887249 -0.69582862 1.8040001 6310953
0.9111762 -0.69235718 1.7950001 6441257
0.91801429 -0.69235718 1.7950001 6375443
0.92021531 -0.68888581 1.7860001 6244115
0.91767621 -0.68194288 1.7680001 6178834
0.91970575 -0.67847145 1.7590001 6178838
0.91692668 -0.67152858 1.7410001 6113058
0.92355907 -0.67152858 1.7410001 6047250
0.92538291 -0.66805714 1.7320001 6113049
0.92713815 -0.66458571 1.723 6178602
nan nan nan 6113062
nan nan nan 6048546
nan nan nan 6113323
nan nan nan 6243369
nan nan nan 6243858
nan nan nan 6178578
nan nan nan 6244370
nan nan nan 6178835
-1.0348438 -0.7065962 1.8140001 10664915
-1.0443667 -0.71789241 1.8430001 10599636
-1.0486029 -0.72568291 1.863 10599637
-1.0415058 -0.72568291 1.863 10665174
-1.0399611 -0.72957814 1.8730001 10730708
-1.0383401 -0.73347336 1.8830001 10665946
-1.0426667 -0.74165332 1.904 10535639
-1.0528153 -0.75411814 1.9360001 10537450
-1.05138 -0.75840288 1.9470001 10733794
-1.043963 -0.75840288 1.9470001 10798557
-1.042402 -0.76268762 1.9580001 10666716
-1.0407572 -0.76697242 1.9690001 10666201
-1.0453258 -0.77593142 1.9920001 10665432
-1.0497191 -0.78489053 2.0150001 10599898
-1.0544543 -0.79423904 2.039 10534620
-1.0528467 -0.79891342 2.0510001 10403548
-1.0577716 -0.80865151 2.0760002 10403546
-1.0559314 -0.8133257 2.0880001 10338266
-1.0545019 -0.81838953 2.1010001 10337495
-1.0529734 -0.82345337 2.1140001 10336979
-1.0513458 -0.8285172 2.1270001 10401746
-1.0496191 -0.83358103 2.1400001 10270412
-1.0477934 -0.8386448 2.1530001 10139336
-1.0395914 -0.8386448 2.1530001 9942476
-1.0448028 -0.84955144 2.181 9614293
-1.0426724 -0.85461521 2.194 9287100
-1.0409143 -0.86006862 2.2080002 9086142
-1.0395172 -0.86591142 2.223 9082810
-1.0375419 -0.87136471 2.237 8746595
-1.03592 -0.87720764 2.2520001 8221289
-1.0337276 -0.88266093 2.266 7957863
-1.0391191 -0.89473629 2.2970002 7761253
-1.0370972 -0.90057909 2.312 7433577
-1.034961 -0.90642196 2.3270001 7566449
-1.0331515 -0.91265434 2.3430002 7699573
-1.0242258 -0.91265434 2.3430002 7301479
-1.0083667 -0.90642196 2.3270001 8295048
-1.0063744 -0.91265434 2.3430002 9739399
-0.99744862 -0.91265434 2.3430002 9741209
-0.98852295 -0.91265434 2.3430002 9805977
-0.97959715 -0.91265434 2.3430002 10067858
-0.97067147 -0.91265434 2.3430002 10330255
-0.9617458 -0.91265434 2.3430002 10526604
-0.94021332 -0.90057909 2.312 10461584
-0.93744862 -0.90642196 2.3270001 10331034
-0.92858386 -0.90642196 2.3270001 10266261
-0.9197191 -0.90642196 2.3270001 10331543
-0.92338008 -0.91888672 2.3590002 10331553
-0.91439342 -0.91888672 2.3590002 10266029
-0.89926577 -0.91265434 2.3430002 10266542
-0.89034003 -0.91265434 2.3430002 10201258
-0.88141429 -0.91265434 2.3430002 10266535
-0.87844676 -0.91888672 2.3590002 10332074
-0.86946011 -0.91888672 2.3590002 10463664
-0.86047339 -0.91888672 2.3590002 10662062
-0.85762292 -0.92550862 2.3760002 10727085
-0.84250003 -0.91888672 2.3590002 10594733
-0.83351338 -0.91888672 2.3590002 10595243
-0.81893432 -0.91265434 2.3430002 10596522
-0.81000859 -0.91265434 2.3430002 10465968
-0.79561245 -0.90642196 2.3270001 10530480
-0.79215723 -0.91265434 2.3430002 10595248
-0.7832315 -0.91265434 2.3430002 10661040
-0.77430576 -0.91265434 2.3430002 10793391
-0.77060676 -0.91888672 2.3590002 10858668
-0.76162004 -0.91888672 2.3590002 10793135
-0.75263339 -0.91888672 2.3590002 10792115
-0.74364668 -0.91888672 2.3590002 10791862
-0.73466003 -0.91888672 2.3590002 10791599
-0.72075146 -0.91265434 2.3430002 10923945
-0.71182573 -0.91265434 2.3430002 10923182
-0.70290005 -0.91265434 2.3430002 10725549
-0.69397432 -0.91265434 2.3430002 10529196
-0.68504858 -0.91265434 2.3430002 10463400
-0.68074006 -0.91888672 2.3590002 10528937
-0.66719723 -0.91265434 2.3430002 10529443
-0.65827149 -0.91265434 2.3430002 10463901
-0.64934576 -0.91265434 2.3430002 10266273
-0.64479339 -0.91888672 2.3590002 10266040
-0.63580668 -0.91888672 2.3590002 10265216
-0.62682009 -0.91888672 2.3590002 10330777
-0.62228572 -0.92550862 2.3760002 10396060
-0.61323434 -0.92550862 2.3760002 10330527
-0.6041829 -0.92550862 2.3760002 10199708
-0.59087336 -0.91888672 2.3590002 10069150
-0.58188671 -0.91888672 2.3590002 10068901
-0.57290006 -0.91888672 2.3590002 10002341
-0.5639134 -0.91888672 2.3590002 9870756
-0.55892575 -0.92550862 2.3760002 9739166
-0.54987431 -0.92550862 2.3760002 9542806
-0.54082286 -0.92550862 2.3760002 9411221
-0.53177148 -0.92550862 2.3760002 9148057
-0.52624005 -0.931741 2.3920002 8884880
nan nan nan 8491141
nan nan nan 8223095
nan nan nan 8026725
-0.3055048 -0.58116955 1.4920001 7827305
-0.2974095 -0.57649523 1.48 7760217
-0.2929543 -0.57883245 1.4860001 7759952
-0.28729334 -0.57883245 1.4860001 7694161
-0.28163239 -0.57883245 1.4860001 7693634
-0.27708575 -0.58116955 1.4920001 7562042
-0.27140191 -0.58116955 1.4920001 7427889
-0.26696476 -0.58389616 1.4990001 7427116
-0.2624743 -0.58662289 1.506 7624239
-0.25673714 -0.58662289 1.506 7690296
-0.24983335 -0.58389616 1.4990001 7625274
-0.24412286 -0.58389616 1.4990001 7691573
-0.23841238 -0.58389616 1.4990001 7757359
-0.23378858 -0.58662289 1.506 7756593
-0.22805144 -0.58662289 1.506 7756339
-0.22128096 -0.58389616 1.4990001 7756851
-0.21557049 -0.58389616 1.4990001 7691568
-0.20986001 -0.58389616 1.4990001 7626282
-0.20414953 -0.58389616 1.4990001 7560745
-0.19843905 -0.58389616 1.4990001 7495221
-0.19182858 -0.58116955 1.4920001 7560243
-0.18614477 -0.58116955 1.4920001 7690802
-0.18046096 -0.58116955 1.4920001 7691061
-0.17477715 -0.58116955 1.4920001 7494463
-0.16988668 -0.58389616 1.4990001 7298103
-0.16340953 -0.58116955 1.4920001 7298105
-0.15846571 -0.58389616 1.4990001 7428407
-0.15275525 -0.58389616 1.4990001 7559217
-0.14704476 -0.58389616 1.4990001 7625243
-0.14133428 -0.58389616 1.4990001 7559472
-0.13562383 -0.58389616 1.4990001 7493681
-0.12930667 -0.58116955 1.4920001 7559475
-0.12362287 -0.58116955 1.4920001 7624751
-0.11793905 -0.58116955 1.4920001 7559217
-0.11225525 -0.58116955 1.4920001 7559723
-0.10657144 -0.58116955 1.4920001 7559702
-0.10088763 -0.58116955 1.4920001 7625509
-0.094820954 -0.57883245 1.4860001 7757103
-0.089520007 -0.58116955 1.4920001 7757110
-0.083499052 -0.57883245 1.4860001 7691312
-0.0778381 -0.57883245 1.4860001 7625775
-0.072468571 -0.58116955 1.4920001 7625776
-0.066784769 -0.58116955 1.4920001 7691570
-0.061100956 -0.58116955 1.4920001 7691315
-0.055677146 -0.58389616 1.4990001 7624759
-0.049733337 -0.58116955 1.4920001 7691068
-0.044049527 -0.58116955 1.4920001 7756602
-0.038365718 -0.58116955 1.4920001 7822388
-0.032681905 -0.58116955 1.4920001 7757104
-0.026998097 -0.58116955 1.4920001 7757623
-0.021414286 -0.58389616 1.4990001 7823420
-0.01570381 -0.58389616 1.4990001 7823163
-0.0099933334 -0.58389616 1.4990001 7823166
-0.0042628576 -0.58116955 1.4920001 7823173
0.0014209525 -0.58116955 1.4920001 7823165
0.0071047624 -0.58116955 1.4920001 7823161
0.012788572 -0.58116955 1.4920001 7757105
0.018472383 -0.58116955 1.4920001 7756834
0.024156192 -0.58116955 1.4920001 7625502
0.029840002 -0.58116955 1.4920001 7559191
0.035523813 -0.58116955 1.4920001 7427861
0.041207619 -0.58116955 1.4920001 7231511
0.046891432 -0.58116955 1.4920001 7296550
0.052575238 -0.58116955 1.4920001 7427618
0.058532383 -0.58389616 1.4990001 7427866
0.064242855 -0.58389616 1.4990001 7493406
0.069626667 -0.58116955 1.4920001 7558678
0.075310476 -0.58116955 1.4920001 7623982
0.080994293 -0.58116955 1.4920001 7558959
0.086678103 -0.58116955 1.4920001 7428396
0.092361905 -0.58116955 1.4920001 7494703
0.098045722 -0.58116955 1.4920001 7625780
0.10372953 -0.58116955 1.4920001 7691316
0.10941334 -0.58116955 1.4920001 7625523
0.11509714 -0.58116955 1.4920001 7494191
0.12078096 -0.58116955 1.4920001 7362857
0.12646477 -0.58116955 1.4920001 7297322
0.13214858 -0.58116955 1.4920001 7428391
0.13783239 -0.58116955 1.4920001 7428395
0.1435162 -0.58116955 1.4920001 7428399
0.1486 -0.57883245 1.4860001 7493923
0.15426095 -0.57883245 1.4860001 7493417
0.1599219 -0.57883245 1.4860001 7493399
0.16625144 -0.58116955 1.4920001 7493910
0.17193525 -0.58116955 1.4920001 7493414
0.17690475 -0.57883245 1.4860001 7559215
0.18330288 -0.58116955 1.4920001 7427886
0.18898669 -0.58116955 1.4920001 7362593
0.19467048 -0.58116955 1.4920001 7362840
0.20035429 -0.58116955 1.4920001 7428129
0.2060381 -0.58116955 1.4920001 7493417
0.21172191 -0.58116955 1.4920001 7493410
0.21653143 -0.57883245 1.4860001 7427630
0.22219238 -0.57883245 1.4860001 7427887
0.22877336 -0.58116955 1.4920001 7428128
0.23445717 -0.58116955 1.4920001 7427863
0.24014096 -0.58116955 1.4920001 7427606
0.24582478 -0.58116955 1.4920001 7492635
0.25150859 -0.58116955 1.4920001 7492380
0.25615808 -0.57883245 1.4860001 7492886
0.26181903 -0.57883245 1.4860001 7492896
0.26748002 -0.57883245 1.4860001 7623959
0.27424383 -0.58116955 1.4920001 7690022
0.27992764 -0.58116955 1.4920001 7625770
0.28561145 -0.58116955 1.4920001 7626294
0.29129526 -0.58116955 1.4920001 7626296
0.29578477 -0.57883245 1.4860001 7625531
0.30144572 -0.57883245 1.4860001 7625270
0.30834666 -0.58116955 1.4920001 7756851
0.31276762 -0.57883245 1.4860001 7822382
0.31971431 -0.58116955 1.4920001 7823393
0.32539812 -0.58116955 1.4920001 7757603
0.33108193 -0.58116955 1.4920001 7823128
0.33676574 -0.58116955 1.4920001 7888409
0.34244955 -0.58116955 1.4920001 7953430
0.34673333 -0.57883245 1.4860001 8018968
0.35239428 -0.57883245 1.4860001 8019481
0.35805523 -0.57883245 1.4860001 8084525
0.36371619 -0.57883245 1.4860001 8019488
0.36937714 -0.57883245 1.4860001 8020000
0.37503809 -0.57883245 1.4860001 8019995
0.38223621 -0.58116955 1.4920001 7955241
0.38792002 -0.58116955 1.4920001 7888939
0.39360383 -0.58116955 1.4920001 7823150
0.39928764 -0.58116955 1.4920001 7821881
0.40497145 -0.58116955 1.4920001 7756350
0.41065526 -0.58116955 1.4920001 7690809
0.41466478 -0.57883245 1.4860001 7690544
0.42202288 -0.58116955 1.4920001 7690548
0.42770669 -0.58116955 1.4920001 7559223
0.43164763 -0.57883245 1.4860001 7297070
0.43730858 -0.57883245 1.4860001 7097651
0.44118097 -0.57649523 1.48 7096120
0.44681904 -0.57649523 1.48 7230516
0.45245716 -0.57649523 1.48 7231549
0.45809522 -0.57649523 1.48 7100475
0.46561334 -0.57883245 1.4860001 6443537
0.74306577 -0.91265434 2.3430002 7438961
0.75199151 -0.91265434 2.3430002 9014906
0.76091719 -0.91265434 2.3430002 8883589
0.76984292 -0.91265434 2.3430002 8753040
0.7787686 -0.91265434 2.3430002 8884620
0.78769433 -0.91265434 2.3430002 9015693
0.79662001 -0.91265434 2.3430002 9146516
0.80554575 -0.91265434 2.3430002 9211800
0.81447148 -0.91265434 2.3430002 9277589
0.82339722 -0.91265434 2.3430002 9343123
0.83232296 -0.91265434 2.3430002 9342871
0.84699339 -0.91888672 2.3590002 9408921
0.85017431 -0.91265434 2.3430002 9409182
0.85910004 -0.91265434 2.3430002 9409691
0.86802578 -0.91265434 2.3430002 9409685
0.87096292 -0.90642196 2.3270001 9474706
0.87982762 -0.90642196 2.3270001 9474709
0.88869244 -0.90642196 2.3270001 9343127
0.8975572 -0.90642196 2.3270001 9212044
0.90642196 -0.90642196 2.3270001 9080678
0.91528672 -0.90642196 2.3270001 9015692
0.92415148 -0.90642196 2.3270001 9146772
0.93301624 -0.90642196 2.3270001 9211270
0.941881 -0.90642196 2.3270001 9210505
0.95074576 -0.90642196 2.3270001 9146763
0.95961052 -0.90642196 2.3270001 9146764
0.96847528 -0.90642196 2.3270001 9146511
0.97734004 -0.90642196 2.3270001 9081487
0.98620474 -0.90642196 2.3270001 9080463
0.99506962 -0.90642196 2.3270001 9146004
0.99746293 -0.90057909 2.312 9146776
1.0127991 -0.90642196 2.3270001 9081497
1.0150781 -0.90057909 2.312 9079963
1.0172429 -0.89473629 2.2970002 9080729
1.0259935 -0.89473629 2.2970002 9080472
1.0347439 -0.89473629 2.2970002 9014672
1.0434943 -0.89473629 2.2970002 9014672
1.0591162 -0.90057909 2.312 8882832
1.0679239 -0.90057909 2.312 8750987
1.0767314 -0.90057909 2.312 8685699
1.0784963 -0.89473629 2.2970002 8553086
1.0872468 -0.89473629 2.2970002 8421750
1.0883629 -0.88850385 2.2810001 8355450
1.1047477 -0.89473629 2.2970002 8289657
1.1207695 -0.90057909 2.312 8159098
