# .PCD v0.7 - Point Cloud Data file format
VERSION 0.7
FIELDS x y z rgba
SIZE 4 4 4 4
TYPE F F F U
COUNT 1 1 1 1
WIDTH 204
HEIGHT 1
VIEWPOINT 0 0 0 1 0 0 0
POINTS 204
DATA ascii
-0.036708839 -0.076257169 0.1494801 4304075
-0.029746534 -0.076949358 0.1489834 4304075
-0.02030219 -0.076883495 0.14865425 4304075
-0.010251074 -0.076612294 0.14880644 4304075
-3.8802336e-05 -0.075643957 0.14915502 4304075
0.010120359 -0.07519865 0.14804274 4304075
0.021136845 -0.076133668 0.14862671 4304075
0.030786505 -0.076200306 0.14893748 4304075
0.040890858 -0.076810598 0.14903764 4304075
0.048890214 -0.076202273 0.14881472 4304075
0.061239246 -0.076444983 0.15015134 4304075
0.069909081 -0.077166975 0.15026323 4304075
0.080567032 -0.076744735 0.15071964 4304075
0.090173982 -0.076902986 0.15041126 4304075
0.093249865 -0.084933341 0.18193564 4304075
-0.035841893 -0.077403128 0.17068493 4304075
-0.030222511 -0.077573776 0.17049047 4304075
-0.019013956 -0.077744484 0.17054786 4304075
-0.0098960595 -0.077735305 0.17068179 4304075
0.00037714845 -0.077440202 0.17074026 4304075
0.0061960206 -0.07750392 0.17083554 4304075
0.071972042 -0.07849443 0.17231531 4304075
0.080879152 -0.079121649 0.17325245 4304075
0.088258304 -0.079606712 0.17387147 4304075
-0.035696164 -0.075392663 0.16618302 4304075
-0.029790863 -0.076286018 0.16316015 4304075
-0.01987108 -0.077580571 0.16301177 4304075
-0.010278623 -0.076614082 0.16342302 4304075
-0.000145895 -0.076031327 0.16423291 4304075
0.010053582 -0.076226771 0.16416426 4304075
0.020337798 -0.076432407 0.16416544 4304075
0.02991757 -0.076262832 0.16429622 4304075
0.039629079 -0.077011526 0.16441882 4304075
0.050122805 -0.077176154 0.16376269 4304075
0.060087964 -0.07727766 0.16428421 4304075
0.069992855 -0.076492906 0.16536026 4304075
0.079784915 -0.077109516 0.16563644 4304075
0.089129694 -0.077455699 0.1650891 4304075
-0.035615243 -0.07571131 0.15197663 4304075
-0.029724151 -0.077097714 0.15515414 4304075
-0.02005066 -0.076276004 0.15472418 4304075
-0.0098851798 -0.076105356 0.15477832 4304075
9.1255606e-05 -0.074893892 0.15520732 4304075
0.010399205 -0.075833678 0.15386395 4304075
0.020372082 -0.074699879 0.15489078 4304075
0.030250236 -0.075774848 0.15495662 4304075
0.03955191 -0.076484442 0.15512507 4304075
0.05026548 -0.075739622 0.15459198 4304075
0.059414271 -0.077367365 0.15520996 4304075
0.070599139 -0.077362716 0.1562417 4304075
0.080118544 -0.0770455 0.15653822 4304075
0.089611165 -0.077485025 0.15637457 4304075
-0.036442991 -0.076697469 0.18221568 4304075
-0.030397272 -0.077974319 0.18535362 4304075
-0.020520194 -0.077801347 0.1855679 4304075
-0.01095362 -0.077961147 0.18519981 4304075
2.024969e-05 -0.076749444 0.18522656 4304075
0.0095567359 -0.077320755 0.18515357 4304075
0.019937554 -0.076454222 0.18519135 4304075
0.02942008 -0.077250719 0.18543954 4304075
0.039993465 -0.076914132 0.18506788 4304075
0.049347103 -0.077761471 0.18600266 4304075
0.059494544 -0.077982306 0.18561073 4304075
0.069555424 -0.077818394 0.18513034 4304075
0.080168799 -0.07755971 0.18555848 4304075
0.089631259 -0.079583466 0.18577091 4304075
0.095355183 -0.083210349 0.1811592 4304075
-0.036573038 -0.075590134 0.17741485 4304075
-0.030118277 -0.076864004 0.17670442 4304075
-0.020178786 -0.07761395 0.17658956 4304075
-0.010075926 -0.076905787 0.17706165 4304075
-0.00047393091 -0.076824307 0.17662087 4304075
0.010016853 -0.077171564 0.17631379 4304075
0.019830385 -0.076281369 0.17671736 4304075
0.029543536 -0.076447189 0.1765727 4304075
0.039925531 -0.076329947 0.17703228 4304075
0.049993291 -0.076082826 0.17761296 4304075
0.05955334 -0.077302873 0.17705837 4304075
0.069436044 -0.078410685 0.17741503 4304075
0.079451561 -0.079189301 0.17790122 4304075
0.089409336 -0.07877332 0.17872484 4304075
0.094745949 -0.082122803 0.17953433 4304075
0.00040321113 -0.075684845 0.16991559 4304075
0.013618317 -0.075289786 0.17076372 4304075
0.01723804 -0.075869322 0.17019115 4304075
0.029540412 -0.076004148 0.1703925 4304075
0.042647563 -0.075112343 0.17085809 4304075
0.049763188 -0.07490927 0.17098261 4304075
0.059972603 -0.076337516 0.17089064 4304075
0.066447541 -0.076408446 0.17099667 4304075
0.085872352 -0.076621234 0.17131463 4304075
-0.030865643 -0.079340458 0.20559812 4304075
-0.020281471 -0.078850508 0.20634073 4304075
-0.011602919 -0.079022944 0.20678033 4304075
-0.00084662205 -0.078689873 0.20654181 4304075
0.012444608 -0.078902066 0.20640934 4304075
0.019588346 -0.078843415 0.20699596 4304075
0.029865228 -0.078932524 0.20629026 4304075
0.038770374 -0.079113126 0.20600058 4304075
0.048824098 -0.079104781 0.20678706 4304075
0.061117426 -0.079217196 0.20710488 4304075
0.068739623 -0.07964623 0.20755327 4304075
0.089773871 -0.080884337 0.20794778 4304075
-0.030326355 -0.077780604 0.19849557 4304075
-0.020785986 -0.07802093 0.19844739 4304075
-0.010782967 -0.077618361 0.19925828 4304075
-0.000847811 -0.076670706 0.20030622 4304075
0.0096903099 -0.07701093 0.20016305 4304075
0.019655723 -0.077513516 0.20015247 4304075
0.029487882 -0.078371823 0.19927244 4304075
0.039426394 -0.078051746 0.1995495 4304075
0.049588576 -0.077954412 0.20076928 4304075
0.059338477 -0.078013539 0.20108747 4304075
0.069390632 -0.078646064 0.20053363 4304075
0.07952258 -0.078281105 0.20095333 4304075
0.088965088 -0.07908529 0.20048705 4304075
-0.030288707 -0.077579975 0.19137926 4304075
-0.018921819 -0.077314675 0.1914925 4304075
-0.0098664127 -0.076507151 0.19149843 4304075
-0.0012107033 -0.076414168 0.1912889 4304075
0.010120283 -0.076690257 0.19150248 4304075
0.019492302 -0.076731503 0.1908963 4304075
0.029729642 -0.07757926 0.19108434 4304075
0.039444812 -0.076973379 0.19084683 4304075
0.049648453 -0.076512337 0.19234796 4304075
0.059761006 -0.076891005 0.19213995 4304075
0.069558941 -0.077065527 0.19153586 4304075
0.079325989 -0.07702291 0.19176513 4304075
0.088755272 -0.077665687 0.1923037 4304075
-0.025071414 -0.080906928 0.22805746 4304075
-0.0088916952 -0.081084192 0.2283223 4304075
0.089450598 -0.082820237 0.22971745 4304075
-0.037608888 -0.077557862 0.22109245 4304075
-0.030537233 -0.078478932 0.22179359 4304075
-0.020952018 -0.079390347 0.22146484 4304075
-0.010775404 -0.078975558 0.22177002 4304075
-0.00087590906 -0.078033984 0.22142047 4304075
0.0090452014 -0.077900887 0.22246329 4304075
0.018676622 -0.077966928 0.22177747 4304075
0.02917468 -0.078195393 0.22238821 4304075
0.03873622 -0.078533113 0.22228321 4304075
0.049429748 -0.078436196 0.22256848 4304075
0.058957923 -0.078642309 0.22199918 4304075
0.069062471 -0.079228044 0.22255296 4304075
0.078910232 -0.079505265 0.22268367 4304075
0.087612055 -0.079994023 0.22331215 4304075
-0.037004828 -0.076760471 0.21218167 4304075
-0.030666538 -0.07777673 0.21249157 4304075
-0.020914339 -0.078351617 0.21225411 4304075
-0.0097899307 -0.078201771 0.21244708 4304075
-0.00029726001 -0.077149987 0.21232696 4304075
0.00877281 -0.076855004 0.21280129 4304075
0.019040927 -0.076928437 0.21315172 4304075
0.028982041 -0.077234626 0.21338902 4304075
0.039240684 -0.077205658 0.21308887 4304075
0.04893152 -0.077534139 0.21339828 4304075
0.058975369 -0.077761352 0.2132342 4304075
0.069038689 -0.078240633 0.2133989 4304075
0.079219244 -0.077609479 0.21299982 4304075
0.087985456 -0.078753173 0.21359159 4304075
0.08144179 -0.076620638 0.20727071 4304075
0.085663185 -0.076666892 0.20733982 4304075
-0.036363959 -0.081779778 0.23924972 4304075
-0.031178229 -0.081347346 0.23950258 4304075
-0.020575766 -0.081276238 0.24003844 4304075
-0.011681639 -0.082121611 0.23986049 4304075
-0.0024305067 -0.078600287 0.24219006 4304075
0.021955058 -0.080393314 0.24212225 4304075
0.026781715 -0.080058038 0.24153143 4304075
0.039336093 -0.077609003 0.24290647 4304075
0.047480743 -0.078676045 0.24270284 4304075
0.060446195 -0.081255913 0.24167757 4304075
0.068070799 -0.07990706 0.24251956 4304075
0.079525828 -0.081626832 0.24186787 4304075
0.086840011 -0.082545519 0.24129286 4304075
-0.03739338 -0.079337597 0.23276614 4304075
-0.031101536 -0.079605162 0.23309736 4304075
-0.021237515 -0.079100728 0.23373844 4304075
-0.011178958 -0.079527974 0.2338371 4304075
-0.00091403536 -0.078636706 0.23479623 4304075
0.0086031426 -0.078382671 0.23507304 4304075
0.018715955 -0.078595579 0.23536503 4304075
0.029067287 -0.078694284 0.2355704 4304075
0.038618132 -0.078231454 0.23592623 4304075
0.048676923 -0.078725398 0.23600234 4304075
0.05883953 -0.07875675 0.23646429 4304075
0.068886437 -0.078895092 0.2359788 4304075
0.078675076 -0.07980144 0.23587239 4304075
0.086993195 -0.079703331 0.23560804 4304075
-0.038810179 -0.07687664 0.22653045 4304075
-0.033800185 -0.077869296 0.22711474 4304075
-0.01903107 -0.078246057 0.22767764 4304075
-0.011139274 -0.078207135 0.22761947 4304075
-0.00048930879 -0.077815831 0.22727458 4304075
0.0076931831 -0.077668488 0.2277136 4304075
0.019247456 -0.077256024 0.22759709 4304075
0.028413022 -0.077427566 0.22834265 4304075
0.039325204 -0.077340484 0.22869787 4304075
0.049304355 -0.078069746 0.22841313 4304075
0.059059069 -0.077621937 0.22860704 4304075
0.068692654 -0.078407526 0.22891788 4304075
0.079954669 -0.07902962 0.22884829 4304075
0.0848656 -0.07913357 0.22900362 4304075
0.029093578 -0.076900482 0.24364571 4304075
