# .PCD v0.7 - Point Cloud Data file format
VERSION 0.7
FIELDS x y z rgba
SIZE 4 4 4 4
TYPE F F F U
COUNT 1 1 1 1
WIDTH 1
HEIGHT 802
VIEWPOINT 0 0 0 1 0 0 0
POINTS 802
DATA ascii
-0.20133427 -0.090554595 0.1989823 16579835
-0.19367972 -0.092526197 0.19915792 16579835
-0.18455306 -0.092407286 0.19978777 16579835
-0.17421435 -0.093285024 0.20042519 16579835
-0.16503853 -0.09294641 0.2004717 10004131
-0.15745489 -0.093207359 0.20085703 9874351
-0.21310894 -0.088344634 0.19650009 16251899
-0.20383281 -0.089972794 0.1965224 16120826
-0.19420448 -0.090988219 0.19674543 16382971
-0.18442579 -0.091350734 0.19711111 16317435
-0.17422086 -0.091914773 0.19731341 16382970
-0.16431035 -0.091960967 0.19781001 8820372
-0.1562397 -0.092115164 0.19808798 9609896
-0.23127699 -0.090166152 0.21246903 16645629
-0.2255636 -0.090565503 0.21273544 16645629
-0.21514191 -0.090813458 0.21302772 16580093
-0.20520082 -0.091687441 0.21378769 16645629
-0.19503699 -0.092006981 0.21392308 16645629
-0.18449157 -0.092382193 0.2146637 16645629
-0.17678961 -0.092465818 0.21445568 16645629
-0.16441141 -0.092723668 0.21448809 9609895
-0.15829025 -0.09238261 0.21514034 9608628
-0.25353298 -0.08615762 0.20560662 16579836
-0.24459791 -0.086887598 0.20604478 16579836
-0.23468575 -0.087874889 0.20589304 16579836
-0.22456731 -0.089337349 0.20532267 16579836
-0.21458523 -0.090191483 0.20534745 16579836
-0.20452838 -0.09131825 0.20566022 16514299
-0.19484599 -0.091566503 0.20632413 16579836
-0.18475206 -0.091992855 0.20679857 16579836
-0.17468509 -0.092198133 0.20778121 16580092
-0.16473158 -0.092554271 0.20754358 9807531
-0.15559833 -0.092459798 0.20763154 10332849
-0.25406832 -0.084717214 0.19822425 16382971
-0.24436481 -0.085152864 0.19812264 16382971
-0.2343675 -0.086211085 0.19756737 16120570
-0.224648 -0.086858869 0.19749005 16251642
-0.21495558 -0.088075399 0.19792502 16382971
-0.20542157 -0.089225709 0.19905479 16448507
-0.15356512 -0.089101732 0.20121484 10792882
-0.14649799 -0.10414606 0.23707101 10793141
-0.25289297 -0.088488638 0.22545607 16711422
-0.24508783 -0.089036107 0.22588512 16711422
-0.23535755 -0.089909375 0.22645213 16711422
-0.22581549 -0.090924323 0.22687106 16711422
-0.21521097 -0.091855586 0.22656208 16711679
-0.2050495 -0.092355728 0.22783586 16777215
-0.19578299 -0.091483057 0.2280525 16777214
-0.186179 -0.091782928 0.22778741 16777215
-0.17605172 -0.09163624 0.22833362 16711679
-0.16986366 -0.091330111 0.22835723 15727866
-0.14491411 -0.098466992 0.23469138 10128785
-0.25325739 -0.087413967 0.21881643 16645629
-0.24515548 -0.088127911 0.21872149 16645629
-0.23531015 -0.089798868 0.21876368 16645629
-0.22507249 -0.090774715 0.21949539 16711421
-0.21538365 -0.091726243 0.21937221 16645885
-0.20530079 -0.09233743 0.22044249 16711422
-0.19541582 -0.091726243 0.22101726 16711422
-0.18549395 -0.09200418 0.2217035 16711422
-0.17505938 -0.091563225 0.22158743 16711422
-0.16559069 -0.091342926 0.22164008 10728120
-0.15654472 -0.090921342 0.22086458 10267316
-0.25364178 -0.086812913 0.21141858 16580093
-0.2448093 -0.087539375 0.21201417 16645629
-0.23802012 -0.087976933 0.21207118 16645885
-0.15404752 -0.085896373 0.21777314 10794428
-0.25305614 -0.089786589 0.2394848 16777215
-0.24587375 -0.090139925 0.24009356 16777215
-0.23568447 -0.090838075 0.24051292 16777215
-0.2258226 -0.091265798 0.24027418 16777215
-0.21557577 -0.091109931 0.24122518 16777215
-0.20622438 -0.091668308 0.24148078 16777215
-0.19648546 -0.090988994 0.24177395 16777215
-0.18835989 -0.09120959 0.24252574 16777215
-0.14442508 -0.1001929 0.23883544 9931884
-0.25298989 -0.088650227 0.23233186 16711422
-0.24582468 -0.089672506 0.23226736 16711422
-0.23589724 -0.090612531 0.23292671 16777214
-0.22589928 -0.091852486 0.23296934 16777215
-0.21584544 -0.091876388 0.23379479 16711679
-0.20591074 -0.091654658 0.23479323 16777215
-0.1955184 -0.091728091 0.23490044 16777215
-0.18583103 -0.091157854 0.23514195 16777215
-0.17554338 -0.09076649 0.2351637 16711678
-0.16584142 -0.090384007 0.23537104 10793656
-0.15709041 -0.089703262 0.23498148 10530232
-0.14463319 -0.090937912 0.23517211 9732206
-0.24328785 -0.087851465 0.22623459 16777214
-0.16389528 -0.089437127 0.22875622 9937572
-0.1541893 -0.086957037 0.22953348 10990267
-0.14812529 -0.086907506 0.23164713 10525573
-0.023350399 -0.064462245 0.21404685 3003885
-0.013590192 -0.064755738 0.21427304 2938348
-0.0049667968 -0.064450264 0.21463221 3003629
0.0059058466 -0.065088868 0.21539477 3003884
0.013853033 -0.064881027 0.21543954 2938349
0.027773077 -0.065213203 0.2159829 3003629
0.035709362 -0.065795779 0.21605805 3134957
0.050563261 -0.065838993 0.21662186 9599833
0.055877645 -0.067304194 0.21710911 9534052
-0.25265524 -0.091267407 0.25401792 16777215
-0.24712957 -0.090401947 0.25456354 16777215
-0.23634546 -0.091496408 0.25406855 16777215
-0.22614422 -0.091315031 0.25457695 16777215
-0.21650517 -0.090964675 0.25538453 16777215
-0.20687813 -0.091078877 0.25517049 16777215
-0.19733179 -0.090251088 0.2556344 16777215
-0.25261381 -0.089213908 0.24645095 16777215
-0.24618632 -0.089829683 0.24736704 16777215
-0.2360189 -0.091006935 0.24704345 16777215
-0.22620031 -0.090766728 0.24789774 16777215
-0.21647683 -0.091084778 0.24822216 16777215
-0.20613074 -0.09131223 0.24874501 16777215
-0.19621803 -0.090749621 0.2488146 16777215
-0.18613543 -0.090040982 0.24939354 16777215
-0.17619191 -0.089517534 0.2490734 16711678
-0.16609462 -0.089290142 0.2496915 11055283
-0.15753815 -0.088250041 0.25077048 11319236
-0.18379438 -0.089389384 0.24209639 16777215
-0.17642544 -0.089449346 0.2423957 16711678
-0.16570598 -0.089028478 0.24340335 10924472
-0.15593284 -0.085958421 0.24288082 11056575
-0.15053713 -0.084989309 0.24189129 10991017
-0.15235934 -0.077870131 0.2384056 10463657
-0.1489521 -0.078494132 0.23240125 9339743
-0.15206859 -0.070353627 0.23266463 10391423
-0.029996065 -0.062897742 0.22630243 2938604
-0.024207827 -0.063207686 0.22700548 3004140
-0.014259612 -0.063998818 0.22671506 3004140
-0.0045145317 -0.064393938 0.2269842 3004396
0.0053098183 -0.064854085 0.22693039 3004396
0.015658941 -0.064424574 0.22756377 2938860
0.025946496 -0.064616024 0.22786911 3004141
0.03608596 -0.065145731 0.22782372 3593451
0.045750029 -0.065599084 0.22869608 8286306
0.053013183 -0.066003263 0.22871561 8744540
-0.029797826 -0.060719967 0.22354308 3069676
-0.024193224 -0.063256025 0.2195341 2938349
-0.013970952 -0.064297795 0.21946882 2938349
-0.0038408607 -0.063583255 0.22003536 2938349
0.0057481648 -0.065292478 0.2201781 3003884
0.016379721 -0.06459868 0.22030851 2938348
0.0255943 -0.064845443 0.22081739 2938348
0.035586085 -0.065088809 0.22158985 3462893
0.045920469 -0.065405011 0.22075792 8551269
0.053906832 -0.066063464 0.22168604 8942172
0.13932204 -0.06176579 0.22389624 3554886
0.145906 -0.062505066 0.22488511 3686212
0.15601496 -0.062748551 0.22585268 3620934
0.16606244 -0.063717663 0.22598682 3752264
0.17551754 -0.063537478 0.22671013 3621191
0.1855851 -0.063323259 0.22653666 3620420
0.1955625 -0.063918233 0.22721852 3554628
0.20606133 -0.064288616 0.22742499 3554369
0.21569884 -0.064472437 0.22754595 3423299
0.22574091 -0.064872205 0.22852381 3488577
0.23607889 -0.064895034 0.22898571 3488319
0.24550566 -0.065138578 0.22880034 3553855
0.25558889 -0.06566292 0.22930458 3422268
0.26537725 -0.065344632 0.22962904 3159866
0.2742441 -0.064499438 0.22954568 3225917
0.13865188 -0.060994446 0.22263232 3554629
0.14959805 -0.061555803 0.22225267 3423811
0.15526739 -0.061363459 0.22237374 3489091
0.16562125 -0.063135386 0.22172177 3489604
0.17738622 -0.062450528 0.22316629 3554884
0.18673177 -0.062834561 0.2232725 3489088
0.19650398 -0.063184023 0.22364712 3554116
0.20552185 -0.063625455 0.22375338 3684674
0.21714564 -0.06385684 0.22441164 3488576
0.22612961 -0.06379205 0.22498715 3357761
0.23656608 -0.063264072 0.22598751 3684925
0.24655728 -0.064752579 0.22551654 3685439
0.25685307 -0.063956559 0.22676195 3291711
0.26620209 -0.063769162 0.22737098 3422530
0.27613127 -0.063148618 0.2280563 3487804
0.28235382 -0.063311875 0.22833312 3487291
-0.25327244 -0.091033638 0.26775315 16777215
-0.24711454 -0.09103328 0.26852641 16777215
-0.23709054 -0.091168761 0.26886123 16777215
-0.22772962 -0.090280414 0.26878804 16777215
-0.21824251 -0.090286136 0.26926327 16777215
-0.19972642 -0.090589762 0.26904678 16777215
-0.2534909 -0.089839995 0.26157528 16777215
-0.24653691 -0.089916825 0.26164839 16777215
-0.23648049 -0.09006989 0.26162234 16777215
-0.22672428 -0.089875579 0.26221895 16777215
-0.21640317 -0.090117335 0.26267871 16777215
-0.20670027 -0.089304686 0.26294672 16777215
-0.19674106 -0.089460969 0.26287875 16777215
-0.18684626 -0.088853419 0.2634674 16777215
-0.17695068 -0.088446379 0.26382381 16711678
-0.16697362 -0.088086188 0.26423571 11055032
-0.15858996 -0.086991787 0.26394394 10462380
-0.19450492 -0.089283526 0.25627983 16777215
-0.18593584 -0.089340687 0.25659811 16777215
-0.17595652 -0.088055253 0.25739273 16711678
-0.16638692 -0.087707043 0.2577278 11054260
-0.15786713 -0.087692857 0.25786024 10396844
-0.15551233 -0.065884233 0.23483869 11056306
-0.023635846 -0.062478244 0.24065693 3004652
-0.015039938 -0.063530684 0.24064638 3070188
-0.0048587876 -0.063298821 0.24101405 4840943
0.0049361214 -0.064466655 0.24101189 4184813
0.014956242 -0.063732743 0.24103384 3004909
0.025415396 -0.063560665 0.24144959 3004652
0.035411652 -0.064250469 0.24220304 3463657
0.044799071 -0.064808726 0.24240108 8746603
0.053586561 -0.066024482 0.24203172 9731675
-0.023955315 -0.062896192 0.23430805 3069932
-0.014519854 -0.062591136 0.23452468 3004396
-0.0044697388 -0.062935948 0.23507667 3266796
0.0057185311 -0.063865423 0.23447408 3070188
0.015582618 -0.064299166 0.2343615 3004652
0.025185788 -0.064075768 0.23531146 3069932
0.035289675 -0.064210832 0.23520359 3463147
0.045350414 -0.064994752 0.23634693 9207146
0.052761193 -0.065563381 0.2365867 9402717
0.13879617 -0.062705874 0.23714682 3949386
0.14605655 -0.062938452 0.23846652 3818312
0.15524952 -0.062793434 0.23923704 3621704
0.16557261 -0.063043714 0.23991297 3620933
0.17531641 -0.063037932 0.2396528 3620679
0.18508179 -0.062550664 0.2401226 3555139
0.19626167 -0.063119471 0.24037027 3620417
0.20541663 -0.063361645 0.24108303 3358531
0.21520342 -0.064310789 0.24143592 3489088
0.22539514 -0.064858854 0.24229836 3554115
0.23496155 -0.065395594 0.24271959 3422782
0.2451935 -0.065216959 0.24239026 3553858
0.25549945 -0.065307379 0.24331239 3357249
0.26444557 -0.064421952 0.24375807 3290940
0.27561623 -0.064748764 0.24361549 3225397
0.28246275 -0.064404488 0.24374026 3093820
0.13844094 -0.060992837 0.23069023 3818059
0.14557005 -0.062293708 0.23198968 3817804
0.15563637 -0.063055813 0.23261911 3752263
0.16540156 -0.063126028 0.23338342 3686472
0.17580368 -0.063944697 0.23346058 3686726
0.18593463 -0.062918663 0.23389585 3620932
0.19541267 -0.063510478 0.23465292 3554882
0.20580915 -0.063573599 0.23510197 3489344
0.21567246 -0.063984752 0.2348499 3489089
0.22561337 -0.06461215 0.23543718 3489087
0.23559503 -0.064334929 0.23611784 3358014
0.24611065 -0.064494789 0.235972 3554112
0.25565007 -0.064503014 0.23647146 3422272
0.26573196 -0.06420064 0.23690748 3159869
0.27565211 -0.06396389 0.23635571 3291195
0.28545064 -0.062807798 0.23755625 5196098
0.29503578 -0.061426342 0.23738748 9925969
0.30186957 -0.06063807 0.23625678 10716482
0.27444604 -0.062765181 0.22920407 3422268
0.28761762 -0.061723351 0.22990987 4604729
0.29585695 -0.059624851 0.23148723 8675404
0.30360737 -0.058549881 0.23168872 8806212
-0.25481126 -0.088914216 0.28180623 16777215
-0.24844661 -0.088942587 0.28183511 16777215
-0.23773457 -0.089216888 0.28260362 16777215
-0.23037957 -0.089423478 0.28275996 16777215
-0.21556801 -0.089934349 0.28324077 16777215
-0.25423652 -0.088806927 0.2762607 16777215
-0.24717698 -0.089085996 0.27712187 16777215
-0.23702157 -0.089594364 0.2767061 16777215
-0.22677392 -0.089441776 0.27639139 16777215
-0.21698305 -0.088938832 0.27710533 16777215
-0.20757096 -0.088297367 0.276391 16777215
-0.19721523 -0.088398635 0.27602932 16777215
-0.187593 -0.087220371 0.27686659 16777215
-0.17735682 -0.086864531 0.27777234 16711678
-0.16757499 -0.086551964 0.27712986 10792629
-0.15800148 -0.085907936 0.27802205 9666923
-0.20630194 -0.088534296 0.26980636 16777215
-0.19484246 -0.088833034 0.27011138 16777215
-0.18581107 -0.088433266 0.27113244 16777215
-0.17677784 -0.087448418 0.27148077 16711422
-0.16630231 -0.086877823 0.27159861 10594219
-0.15802562 -0.085483849 0.27217013 10722447
-0.031356037 -0.064064264 0.25303972 3136236
-0.025014922 -0.062385976 0.25397012 3070701
-0.015222249 -0.063286304 0.25459692 3005165
-0.0050520096 -0.062799871 0.25547472 3070957
0.0044621308 -0.063422561 0.25536954 3070957
0.013638608 -0.063509524 0.2554507 3070957
0.026336348 -0.063684344 0.25567678 3005421
0.034632992 -0.064005613 0.25639018 3856098
0.044549163 -0.064196527 0.25698584 8743513
0.051358026 -0.064319491 0.25699231 9464928
-0.030727642 -0.061855614 0.24891874 3070444
-0.025105655 -0.062568963 0.24703313 3004909
-0.015026273 -0.062511563 0.24787152 3070445
-0.0049950304 -0.062113464 0.24865101 5824239
0.0054207854 -0.062839687 0.24898741 3660525
0.014844731 -0.062877536 0.24858047 3070701
0.024906788 -0.063389599 0.24865675 3070444
0.035242956 -0.063304245 0.24987514 3594470
0.044981033 -0.063760519 0.25003996 9271652
0.052494198 -0.064377367 0.24986887 9598560
0.13740082 -0.061129034 0.25275385 3687240
0.14510579 -0.062219858 0.2533468 3752262
0.15492423 -0.061809182 0.25294721 3555654
0.16443509 -0.062903762 0.25328389 3555655
0.17486927 -0.061971545 0.25392374 3685953
0.18534705 -0.062349617 0.25420368 3555140
0.19352397 -0.062965274 0.25354525 3685702
0.20716253 -0.062123716 0.25570306 3554371
0.21483026 -0.06259352 0.25574318 3488835
0.22492303 -0.063217938 0.25618505 3488321
0.23494188 -0.064361155 0.25551894 3488579
0.24371327 -0.064845204 0.25618273 3422783
0.25581509 -0.06472373 0.25728592 3225918
0.26377866 -0.06588906 0.25729564 3290936
0.27545297 -0.064491153 0.25791624 3356215
0.28172737 -0.064848304 0.2581991 2765872
0.1372723 -0.059423864 0.24617437 3752266
0.14498477 -0.061306238 0.24588981 3752264
0.15555947 -0.061845899 0.24660945 3752262
0.16526946 -0.061868429 0.24750258 3621190
0.17531277 -0.062379837 0.24747261 3686211
0.18533869 -0.06222564 0.2475628 3685956
0.19534014 -0.062045395 0.24773949 3620417
0.20529023 -0.062487602 0.24889944 3620161
0.21496664 -0.063994825 0.24898843 3488831
0.2248968 -0.063880026 0.25004068 3423299
0.23521192 -0.064393759 0.24997668 3488320
0.24521269 -0.064335525 0.24996194 3291707
0.25505343 -0.06430012 0.25091082 3226171
0.26540449 -0.064690769 0.25028512 3225404
0.27520761 -0.064435065 0.25068155 3356215
0.2851733 -0.06394577 0.25111869 5854275
0.29479253 -0.06296283 0.2516084 9399886
0.30103064 -0.062844515 0.25179437 9597013
0.28733256 -0.063383162 0.2444125 6376778
0.29620585 -0.06163764 0.24380679 9661007
0.30174589 -0.060394585 0.24375498 9464144
-0.24819148 -0.088253617 0.29667374 16777170
-0.23717608 -0.088630557 0.29705864 16711622
-0.25556707 -0.088143647 0.2888563 16711679
-0.24767353 -0.087920785 0.28958622 16711679
-0.23803428 -0.087532401 0.29022086 16711679
-0.22752149 -0.087806463 0.28934249 16777215
-0.21780853 -0.087469637 0.28988177 16777215
-0.20792063 -0.086383879 0.29047701 16777215
-0.19707054 -0.086098194 0.28971964 16777215
-0.18837236 -0.084778845 0.29053569 16777215
-0.17687939 -0.084645569 0.29198122 16645886
-0.16977192 -0.084412992 0.29275244 9475463
-0.23719063 -0.087451875 0.28299278 16777215
-0.22634643 -0.087822974 0.28337169 16777215
-0.20647728 -0.086817861 0.28453389 16777215
-0.19711308 -0.087020516 0.28398147 16777215
-0.1872137 -0.086052477 0.28527948 16777215
-0.17693272 -0.085592806 0.28611949 16645886
-0.16692895 -0.084876478 0.28552753 10000275
-0.15934342 -0.084580541 0.2852453 9664355
-0.025176456 -0.061601162 0.26892531 3071470
0.0052774893 -0.062272131 0.26986039 3071470
0.0098002786 -0.062872887 0.26933038 3071727
0.027968455 -0.063023031 0.27019823 3005678
0.030499695 -0.063126862 0.27016133 3268078
0.04469249 -0.063787043 0.27127272 9072213
0.052519303 -0.063931704 0.27184063 9397091
-0.031633794 -0.061329007 0.26144904 3202542
-0.025762428 -0.061877191 0.26150545 3070957
-0.015542867 -0.06162852 0.26291794 3070957
-0.0053491499 -0.06129086 0.26322094 3071213
0.0045964154 -0.062472045 0.26326999 3070957
0.014610222 -0.062861383 0.26313037 3070701
0.024106473 -0.062506378 0.26343945 3070957
0.034296934 -0.063051343 0.26373532 3660267
0.044403717 -0.06298244 0.26475075 9009518
0.05213036 -0.062646329 0.26563579 9599582
0.1453765 -0.060445189 0.26723281 3751750
0.15390997 -0.060578644 0.26770252 3751748
0.16502105 -0.06075263 0.26798221 3686210
0.17140812 -0.061138868 0.26827449 3489347
0.18683338 -0.061489224 0.26881084 3488835
0.19496597 -0.062064707 0.26933914 3554369
0.2042015 -0.062394857 0.26931861 3554370
0.21264447 -0.062344372 0.26990238 3487807
0.25096178 -0.063614786 0.2715171 16383225
0.26803568 -0.06419909 0.27211368 16120050
0.021713993 -0.061324596 0.25631636 3071469
0.13664925 -0.058677197 0.26122126 3686729
0.1446759 -0.060084105 0.26180071 3620936
0.1549904 -0.060212672 0.26110825 3751752
0.16475593 -0.060322225 0.26192492 3685959
0.17463514 -0.060928285 0.26158032 3555140
0.18468431 -0.060471892 0.26227009 3489347
0.19472465 -0.060963333 0.26196605 3489088
0.20472205 -0.061558783 0.26227218 3423555
0.21502474 -0.061901748 0.26316863 3488576
0.22460413 -0.062701046 0.26356789 3488060
0.23491009 -0.062631547 0.26385337 3950422
0.24447948 -0.063636899 0.26356554 4541021
0.25453162 -0.063522577 0.26405194 4210254
0.26506007 -0.063238502 0.2656042 3092544
0.27458283 -0.063749254 0.26530346 3225151
0.28485897 -0.063857198 0.26534048 6642243
0.2948525 -0.063826203 0.2656514 9596492
0.30040884 -0.06299603 0.26680198 9464654
0.15394814 -0.059004545 0.25394753 3555656
0.19624045 -0.060451865 0.25542527 3620421
0.20448203 -0.060733914 0.25571325 3554625
0.28733155 -0.063569188 0.25860813 8150858
0.29636341 -0.062365353 0.25848338 9333578
0.30073756 -0.061968803 0.25887957 8811090
-0.25303391 -0.087204695 0.29703191 16711640
-0.24937575 -0.087993264 0.29783699 12039599
-0.23571388 -0.086907506 0.29930094 12167060
-0.22696102 -0.087979615 0.29863977 13878161
-0.21808617 -0.087048948 0.3003197 11963771
-0.2081289 -0.08587575 0.30297959 8150367
-0.19833107 -0.086479723 0.30254421 9458256
-0.19016176 -0.085720778 0.30266258 11682079
-0.2496696 -0.086545885 0.29635924 16777215
-0.23567945 -0.086072326 0.29664516 16711418
-0.22838502 -0.086264849 0.29694217 16711417
-0.21669893 -0.085557342 0.29784071 16711409
-0.20723934 -0.084496439 0.29858056 16381411
-0.19755021 -0.084323704 0.29811388 16645102
-0.18764633 -0.083967447 0.29774922 16645360
-0.17815165 -0.082896292 0.29920739 16184296
-0.16752511 -0.082943022 0.29880551 9799283
-0.16043201 -0.082047343 0.29812568 10059109
-0.15925327 -0.082674623 0.29240662 9794658
-0.032049883 -0.061024487 0.28173462 3334127
-0.02760574 -0.061133802 0.2822749 3005934
-0.013350288 -0.061593056 0.28302976 3137262
-0.0069624828 -0.062087595 0.28339171 3071982
0.0037236447 -0.062993348 0.28303024 3071726
0.0093247583 -0.063368976 0.28269926 3071471
-0.032163624 -0.05972445 0.2747528 3071470
-0.025987934 -0.060643077 0.2762922 3071214
-0.016014891 -0.060923398 0.27592859 3070957
-0.0059499042 -0.061170101 0.27606899 3071470
0.0039342046 -0.062181056 0.27636644 3005934
0.014110335 -0.061825573 0.27657101 3071213
0.024001202 -0.062411904 0.27705973 3136750
0.034137592 -0.06250459 0.27747151 3790307
0.044080798 -0.062038481 0.27901858 9600102
0.051537834 -0.062183976 0.27837127 9139554
0.13676481 -0.060263157 0.28095728 3751756
0.1414997 -0.059994102 0.28190762 3685707
0.1868443 -0.061299264 0.28344434 3817285
0.18905804 -0.061767936 0.28392294 3881796
0.19917051 -0.061721087 0.28387505 3817281
0.23054147 -0.064830482 0.28276238 2898263
0.29228863 -0.071039319 0.28052679 10189379
-0.032126252 -0.058219075 0.26886621 3137262
-0.013311128 -0.059807122 0.2690585 3399150
-0.0039318618 -0.060128152 0.26938617 3070958
-6.9812559e-05 -0.060260296 0.26952118 3071214
0.016481834 -0.060826719 0.27009949 3005678
0.019792162 -0.060939968 0.27021518 3137775
0.037079435 -0.061531603 0.27081922 4968161
0.13664812 -0.058014452 0.27409807 3817545
0.14404346 -0.059105515 0.27474326 3751749
0.15432222 -0.059368908 0.27370772 3685956
0.16458206 -0.059705734 0.27443051 3620419
0.17460227 -0.059712648 0.27565733 3620161
0.18449505 -0.060165465 0.27574071 3488832
0.19414198 -0.060259402 0.27630904 3554112
0.20459855 -0.059759319 0.27725142 3554109
0.21418078 -0.061079919 0.27663314 3422526
0.22439234 -0.060829818 0.2767041 3554111
0.23397867 -0.062076509 0.27731669 8689311
0.24405304 -0.061957359 0.27744707 13623269
0.25451645 -0.062983453 0.27787825 11978192
0.26429698 -0.063160896 0.27848229 12571875
0.2742011 -0.063065708 0.27883223 9737626
0.28411353 -0.06316185 0.27930182 6378565
0.29395753 -0.064072073 0.27877712 9399116
0.15379447 -0.058560371 0.26778552 3752260
0.17917366 -0.059428871 0.26867229 3620682
0.18138054 -0.05950439 0.26874942 3489864
0.22790794 -0.060812533 0.27079958 3619651
0.23324238 -0.061279237 0.27056155 7699846
0.2452186 -0.061361313 0.2707881 15332855
0.25301921 -0.061409533 0.27093267 13033703
0.26286942 -0.062035143 0.27133328 7517904
0.27406976 -0.06267643 0.27198809 7515297
0.2846595 -0.062466919 0.27279487 7825491
0.29302642 -0.062543929 0.27292457 11308125
-0.17826256 -0.080931306 0.3049182 16119965
-0.16726504 -0.079635799 0.30502462 9799524
-0.032178693 -0.060397089 0.29681477 3137774
-0.026673207 -0.060831428 0.29725823 3137774
-0.015473992 -0.061101973 0.29753447 3072238
-0.011096274 -0.061118543 0.29755139 3269102
0.0037183992 -0.06162554 0.29806906 3072495
0.013021017 -0.062407732 0.29868895 3137774
0.021486545 -0.062601447 0.29890665 3072494
0.049871806 -0.063205004 0.29968172 9992562
-0.033039644 -0.058799684 0.29018185 3071982
-0.026227782 -0.060676277 0.28989127 3071982
-0.016728254 -0.060559988 0.29005295 3071982
-0.0066712741 -0.060136616 0.29146716 3071982
0.0034396499 -0.061497509 0.29102051 3072238
0.013622092 -0.061837435 0.29105309 3137774
0.023795204 -0.062112331 0.29144913 3072238
0.03367212 -0.062056661 0.29173625 4052960
0.04345018 -0.062204063 0.29222056 9994090
0.049747761 -0.062959969 0.29257157 10124903
0.014117823 -0.060659707 0.28422061 3202542
0.023162734 -0.061056733 0.28462595 3137262
0.033786092 -0.061420262 0.28499717 3987164
0.04352751 -0.061753631 0.28533754 11769700
0.051296186 -0.061757088 0.28534099 10193503
0.14626229 -0.060273826 0.28413728 4408646
0.15361151 -0.059230268 0.28423923 3816778
0.16365688 -0.059363663 0.28457263 3685446
0.1737581 -0.060624778 0.28489938 3882053
0.18401931 -0.060620844 0.28564841 4340806
0.19432122 -0.060393393 0.28654689 4274756
0.20473719 -0.060748994 0.28645536 3947069
0.21367422 -0.061056077 0.28674939 3749688
0.22450712 -0.060911477 0.28777549 3422013
0.23305246 -0.060929477 0.2878902 3417904
0.24345048 -0.06143564 0.28814772 5654088
0.25421306 -0.061676562 0.28868887 6780027
0.2646293 -0.062193215 0.28954166 9802375
0.27393875 -0.062987208 0.2900109 6509140
0.28321636 -0.06433773 0.28921172 7693649
0.29229429 -0.062862694 0.29036024 10584912
0.13457024 -0.056209207 0.27967647 3620941
0.14795749 -0.057848215 0.28135002 3817286
0.15461117 -0.057592392 0.28154016 3751750
0.16346852 -0.057747245 0.28170413 3751235
0.17333274 -0.059011877 0.28253812 3685958
0.18239541 -0.058779418 0.28263062 3685954
0.1949739 -0.05855608 0.28298739 3554626
0.20438479 -0.059876442 0.28373846 3750976
0.21467073 -0.060180485 0.28373131 3357503
0.22475991 -0.05986625 0.28455365 3554113
0.23459198 -0.060191095 0.28588572 7114882
0.24484126 -0.060503364 0.28533122 15135204
0.25327316 -0.061141551 0.28578439 15463921
0.26522794 -0.062255085 0.28584954 13562870
0.27364644 -0.062543213 0.28614369 9475473
0.28523839 -0.062363923 0.28643703 8678225
0.29235443 -0.061913013 0.2873053 9793615
-0.022911694 -0.060527503 0.31123942 3268590
-0.01711634 -0.060825586 0.31138501 3138030
-0.0072664535 -0.061287403 0.31165797 3072238
0.0029286805 -0.063453913 0.31267563 4253419
0.012098189 -0.06325841 0.3135514 4384490
0.02142857 -0.062630773 0.31310114 3334895
0.04541111 -0.063342154 0.31390908 10125168
0.048761781 -0.064776063 0.31271902 9995374
-0.033435345 -0.059428215 0.30303639 3072238
-0.02687674 -0.060651481 0.30406675 3072238
-0.016809529 -0.060924947 0.30420122 3138030
-0.0068873786 -0.060645163 0.30437604 3072238
0.002807528 -0.061442435 0.30486748 3072238
0.013231643 -0.062050462 0.30571839 3137774
0.023239257 -0.061679721 0.30600235 3072238
0.032735869 -0.061412156 0.30586722 4510947
0.043158434 -0.0619874 0.3061882 10519664
0.049292311 -0.063159108 0.30572766 10716785
-0.034079611 -0.058047354 0.29632112 3071726
0.034627546 -0.060457826 0.29973513 4511214
0.04373268 -0.061281741 0.29914713 10059897
-0.036018476 -0.058904946 0.31480479 5033940
-0.026623448 -0.059074342 0.31419384 3989997
-0.017475195 -0.060575843 0.31534895 5817037
-0.0074147498 -0.060370743 0.31477141 4516330
-0.0021782999 -0.060773849 0.31482568 4778473
0.015433014 -0.061145306 0.31508586 4121583
0.023179799 -0.061284661 0.3158488 4318443
0.032858789 -0.061623156 0.31639057 5949643
0.041625574 -0.062317729 0.31640211 9931127
-0.034995817 -0.056922436 0.31198892 3203310
-0.027656002 -0.058184505 0.312318 3072238
0.015401351 -0.059635222 0.31318665 3203055
0.025834708 -0.06039989 0.31396744 3072240
0.033672564 -0.060184538 0.31405377 5097427
0.041469619 -0.060573757 0.31434906 10192243
-0.35061699 -0.065754592 1.2833984 8166824
-0.34263241 -0.067543447 1.2843062 9550535
-0.36645758 -0.063130379 1.2957251 8496565
-0.33687007 -0.064142942 1.296759 11059406
-0.36105859 -0.06165272 1.2901332 6587795
-0.3515642 -0.05938834 1.2878213 5139839
-0.34138125 -0.061388552 1.2903742 8431029
-0.33674949 -0.062417746 1.2949976 10143953
-0.2994034 -0.05850774 1.2910054 10538719
-0.29438189 -0.062393606 1.2896136 12178144
-0.35965106 -0.058526814 1.283879 6051169
-0.3522827 -0.058779001 1.2841365 4346478
-0.29675689 -0.056004226 1.2884492 10929377
-0.29337111 -0.058026433 1.2869409 12835819
-0.42270768 -0.055512667 1.3022388 8815458
-0.41572052 -0.055157602 1.3018764 10195829
-0.37164837 -0.057101488 1.3038613 9732469
-0.33556017 -0.057465196 1.3042326 10337479
-0.42155197 -0.050987422 1.2969688 10592125
-0.41503796 -0.050737023 1.2973629 10066287
-0.36850703 -0.053017974 1.2961191 9347745
-0.36205232 -0.051066399 1.2941265 7569028
-0.35072351 -0.051715136 1.2938955 5468036
-0.3409476 -0.053932548 1.2946712 6127250
-0.33260635 -0.052719355 1.2974814 6981022
-0.30219632 -0.052679896 1.2957739 9483219
-0.29001728 -0.053214669 1.2998928 13690352
-0.28189656 -0.052568555 1.2992328 14149362
-0.27081418 -0.053145766 1.2998223 14084082
-0.26081955 -0.053575099 1.3002605 14019060
-0.25232315 -0.053168654 1.2998457 14150131
0.093588665 -0.064309359 1.3112205 2834768
0.13085841 -0.065584779 1.3125229 7112279
0.088703722 -0.058478355 1.3052671 3095358
0.097619437 -0.060090661 1.306913 3362386
0.10727601 -0.060354054 1.307182 3623762
0.11835668 -0.060675263 1.3057237 4347486
0.12834549 -0.06316489 1.3061543 4479577
0.13760112 -0.061168432 1.3080134 4809841
0.146725 -0.059505522 1.3063158 5463148
0.15370631 -0.05939585 1.3062038 5002589
0.08996965 -0.053729236 1.3004181 2632505
0.098044761 -0.054005682 1.3007002 2632009
0.10752875 -0.054911077 1.3016248 2766415
0.11866775 -0.055969119 1.2984828 3488572
0.12919809 -0.057428181 1.2982402 3228228
0.13816476 -0.056238353 1.3009382 3163464
0.14814477 -0.054973304 1.3016882 3487821
0.15622976 -0.05447197 1.3011764 3355973
0.16811006 -0.055241585 1.3019623 3226193
0.17500813 -0.057510853 1.3042792 4145226
0.12942573 -0.051626325 1.2943009 2433315
0.1355481 -0.050597906 1.2954345 2367525
0.15104157 -0.050010264 1.296621 2497067
0.15890962 -0.050279558 1.2968959 2562350
0.16425253 -0.051043272 1.2976757 2692910
-0.40466058 -0.053605914 1.3145838 9995883
-0.29449895 -0.057375908 1.3184329 13821425
-0.2694622 -0.058232725 1.3193078 14543603
-0.26570669 -0.058361232 1.3194389 14085364
-0.43347901 -0.050869823 1.3082172 9343851
-0.41102102 -0.052621424 1.3069091 8879962
-0.40520734 -0.051107347 1.3084596 8943959
-0.3752315 -0.050875783 1.3089379 10859174
-0.33827496 -0.057932079 1.3118551 11190473
-0.33183292 -0.054059029 1.3114734 10599109
-0.32411447 -0.050216258 1.3111228 9806514
-0.29800239 -0.054062188 1.3079038 12898534
-0.2917349 -0.05654031 1.3109837 13559025
-0.2819733 -0.057234764 1.311143 13821938
-0.27223387 -0.057393134 1.3113048 14084340
-0.2617093 -0.057406127 1.3118285 13822196
-0.25260893 -0.054497302 1.3137074 13362163
-0.24345939 -0.052449644 1.3134031 13494003
0.030012581 -0.064383984 1.3255883 8563875
0.037498865 -0.065018177 1.325215 10206911
0.0473122 -0.06407547 1.3252733 9807011
0.05519218 -0.063196957 1.3243763 3756904
0.067301005 -0.065894186 1.3271302 4018510
0.073724836 -0.067343295 1.3286098 3288639
0.099006481 -0.064696372 1.3259072 3025460
0.10600451 -0.065111458 1.3263311 4610137
-0.3052409 -0.050315678 1.3040786 10142682
-0.29039791 -0.052572966 1.3063834 13428209
-0.28042129 -0.052914381 1.3067319 13952498
-0.27100718 -0.052361906 1.3061678 14083827
-0.26046798 -0.053597271 1.3074291 14018804
-0.2508257 -0.052761078 1.3065752 14018548
-0.24166983 -0.050394058 1.3053492 13625584
-0.084086075 -0.051113665 1.312039 12375532
0.037850149 -0.059969366 1.3210809 3164491
0.05036851 -0.060397744 1.3215183 2829839
0.056627691 -0.060611963 1.3217371 1310732
0.066011921 -0.058006346 1.3190767 2234403
0.080281042 -0.057323992 1.3183799 3093300
0.08977779 -0.059708118 1.3193851 3024946
0.098310381 -0.062481701 1.3195627 2700350
0.10721271 -0.062584758 1.318647 3029587
0.11787934 -0.060771763 1.3165408 5134946
0.13828452 -0.063483 1.3184156 7637113
0.14821129 -0.059442282 1.3187562 5532274
0.15714204 -0.05878365 1.3198702 6646904
0.051206641 -0.051997364 1.3129413 2105376
0.062369753 -0.050272167 1.3111799 1778221
0.069758326 -0.052281022 1.313231 2698811
0.078684412 -0.053058028 1.3116424 2634806
0.08569818 -0.055466533 1.3105285 2897714
0.10803081 -0.057461202 1.3113743 3690838
0.1153913 -0.059462428 1.3134176 4677984
0.1479069 -0.05926311 1.3132141 5202804
0.15904739 -0.057611585 1.3123215 6190982
0.16786693 -0.057686567 1.3130333 5270392
0.1757686 -0.057847559 1.3153415 4476498
0.15958805 -0.053102851 1.3069241 3291986
0.1689748 -0.050754309 1.3053201 3025469
0.17461403 -0.052742302 1.3065562 3029073
-0.40126699 -0.050198376 1.3218232 9538929
-0.33373302 -0.053294241 1.3237932 11582409
-0.25792006 -0.05657351 1.3247594 13225966
-0.2516371 -0.056788504 1.3249789 13691635
-0.24329852 -0.05442977 1.3297164 13296366
-0.23253526 -0.054629683 1.3299205 14347251
-0.22242685 -0.054722846 1.3300155 12704233
-0.21340548 -0.054863036 1.3301587 12508654
-0.20453489 -0.054576814 1.3298665 12573678
0.0098945415 -0.06191498 1.337359 6730909
0.014939941 -0.062087655 1.3375353 8112061
0.094404958 -0.064807117 1.3403119 2368553
-0.32998231 -0.050429463 1.3220593 11055544
-0.25779712 -0.054814935 1.322964 13094896
-0.25063547 -0.054472506 1.3226143 13691636
-0.24057586 -0.05281198 1.3215685 13164783
-0.23175821 -0.050857246 1.3244197 13887987
-0.22230224 -0.050590813 1.3257967 13163493
-0.21213144 -0.05054754 1.3252422 13295083
-0.20142686 -0.050463796 1.325667 12901357
-0.15238769 -0.050168455 1.3253655 13558255
-0.11953093 -0.050408244 1.3256104 13688814
-0.11456779 -0.051757693 1.3269882 13491950
-0.10253357 -0.051432312 1.326656 13361645
-0.094303943 -0.051271558 1.3264918 13360878
0.011279271 -0.060193002 1.3356007 2698580
0.018709235 -0.060017049 1.3326727 3293517
0.026294678 -0.060098767 1.3305573 4677472
0.037871029 -0.059645236 1.3278958 6196874
0.047555033 -0.065264761 1.3336333 11253690
0.058588903 -0.063585818 1.3319191 7371125
0.068371058 -0.062225819 1.332317 3686208
0.077686697 -0.061939716 1.330888 2433581
0.087781377 -0.06124717 1.3319132 2500136
0.09752281 -0.065212071 1.3335795 2169636
0.1070793 -0.065790892 1.3341706 4875622
0.11537715 -0.060216665 1.3356249 6783070
0.12643221 -0.058825612 1.3342047 6774094
-0.1120153 -0.050549686 1.318609 13098475
0.031772442 -0.056792438 1.324983 1056539
0.039511662 -0.05424273 1.3259526 1316642
0.047723521 -0.054507673 1.3240794 1646113
0.058184534 -0.055229485 1.3242803 1776162
0.068556242 -0.056141615 1.3243184 2696484
0.077845819 -0.05662632 1.3261125 3025712
0.087575756 -0.057765484 1.3271675 2893612
0.11219441 -0.059544623 1.327793 1920624
0.11684754 -0.058216035 1.3300095 5403009
0.12707204 -0.058474302 1.3290821 6844000
0.13852142 -0.061326921 1.3296127 5334392
0.14833102 -0.057936907 1.330439 8358015
0.15702592 -0.056887686 1.3312051 7103597
0.16544287 -0.056847334 1.3274209 6055771
-0.22188936 -0.053698063 1.3361151 12835816
-0.21221738 -0.05331862 1.3357277 12377579
-0.20192264 -0.053366363 1.3357766 12770286
-0.19282325 -0.05240196 1.3365784 12835306
-0.18327951 -0.051506996 1.3378481 12572388
-0.17240818 -0.052469611 1.3357542 13559793
-0.16257329 -0.051774085 1.3386168 12969455
-0.15333937 -0.050424218 1.3399183 13296625
-0.11311799 -0.05090934 1.3404135 13296623
-0.10034721 -0.050455034 1.3399496 13361901
0.0067577609 -0.056673229 1.3448693 3165004
0.11680228 -0.059294581 1.3471885 5853014
-0.17213969 -0.050072372 1.3324132 13689837
-0.16201082 -0.050418973 1.3327671 13231343
-0.15185103 -0.050322652 1.3326687 13165040
-0.11140559 -0.050742567 1.3348839 13229805
-0.10341767 -0.051003337 1.3333637 13362156
-0.093110129 -0.050062001 1.3335936 13295344
-0.032712765 -0.050694466 1.3366213 16514043
-0.021631153 -0.050383091 1.3351123 16317178
-0.011767145 -0.050098896 1.335503 15067883
-0.0059082899 -0.05043298 1.3327813 14081512
0.01096678 -0.053000271 1.3407619 2232346
0.017174732 -0.051549435 1.3380046 852742
0.11918849 -0.058266163 1.3407792 9799304
0.12714115 -0.05697757 1.344823 5983836
0.14727023 -0.057374954 1.3416557 7902369
0.15780011 -0.056627452 1.339106 6714493
0.16374989 -0.056239009 1.3387095 4540496
0.16640595 -0.054553866 1.3369889 5589039
-0.18287289 -0.050513983 1.3485847 12704744
-0.17776664 -0.050688684 1.348763 12771824
-0.0014806876 -0.052869856 1.3581359 5534045
0.11896393 -0.056991756 1.3623444 731473
0.19071816 -0.059447289 1.3648516 6123873
0.11752921 -0.057074428 1.358856 1915452
0.12649684 -0.055673599 1.3552819 5269874
0.14725798 -0.05411917 1.3565531 5199683
0.15547594 -0.054040968 1.3564732 6844501
0.16553032 -0.052294374 1.3575484 7107926
0.15859546 -0.053245962 1.351374 7642249
0.16724756 -0.051690578 1.3512151 5659722
0.12668449 -0.053360879 1.3694578 4939128
0.13513264 -0.051199079 1.3721504 5857385
0.16744843 -0.052002966 1.3729712 5860963
0.1750899 -0.054069161 1.3712699 7504235
0.18592992 -0.053898215 1.3710089 6781784
0.19494344 -0.055087805 1.3718336 5794139
0.13778806 -0.050162733 1.3625177 2108763
0.15823959 -0.052666724 1.3650743 5522511
0.16736794 -0.051175058 1.3635513 6710624
0.25615397 -0.053030908 1.3883125 9999510
0.16450182 -0.051348984 1.3794494 4870463
0.18018721 -0.050066948 1.3781404 7109729
