# .PCD v0.7 - Point Cloud Data file format
VERSION 0.7
FIELDS x y z rgba
SIZE 4 4 4 4
TYPE F F F U
COUNT 1 1 1 1
WIDTH 122
HEIGHT 1
VIEWPOINT 0 0 0 1 0 0 0
POINTS 122
DATA ascii
0.34530249 -0.0055815578 0.2952199 7099969
0.32919908 -0.0089792013 0.30495304 7099969
0.33569112 -0.0066686869 0.3077293 7099969
0.34489173 -0.0062225461 0.30844635 7099969
0.353591 -0.0058001876 0.3087849 7099969
0.3362048 -0.0060133338 0.30126888 7099969
0.34540272 -0.0059673786 0.30170554 7099969
0.35302037 -0.0050628781 0.30263892 7099969
0.26451433 -0.0070501566 0.32666659 7099969
0.27202532 -0.0073071718 0.32692903 7099969
0.320847 -0.0089779496 0.32863495 7099969
0.28496081 -0.0050022006 0.3244805 7099969
0.29251859 -0.0060048699 0.32517049 7099969
0.30571097 -0.0056064129 0.32519251 7099969
0.31514791 -0.006012857 0.32549313 7099969
0.32498431 -0.0068018436 0.32477993 7099969
0.33448607 -0.0071071982 0.3232187 7099969
0.34434435 -0.0074163079 0.32291168 7099969
0.35485721 -0.0060860515 0.32435048 7099969
0.36177525 -0.0064913034 0.32551125 7099969
0.32881698 -0.0050515532 0.31700388 7099969
0.33548579 -0.0055504441 0.3155517 7099969
0.34507188 -0.0056975484 0.31535295 7099969
0.29431838 -0.0057297349 0.33432466 7099969
0.30415317 -0.0051924586 0.33547583 7099969
0.31402242 -0.0062391758 0.33630547 7099969
0.32437205 -0.0062077641 0.33641994 7099969
0.33389577 -0.0066491365 0.33753869 7099969
0.34391132 -0.007145226 0.33707237 7099969
0.35425785 -0.0064778328 0.33841977 7099969
0.36336449 -0.0065100789 0.33856475 7099969
0.2843903 -0.0050473809 0.32756919 7099969
0.30427876 -0.0050809383 0.32805631 7099969
0.31403428 -0.0060999393 0.32862985 7099969
0.32481205 -0.0071491003 0.3296259 7099969
0.33511305 -0.0071067214 0.33036205 7099969
0.34487143 -0.0065888762 0.33015823 7099969
0.35429245 -0.006079793 0.33100271 7099969
0.36270064 -0.0064353943 0.33182693 7099969
0.34138611 -0.0092354417 0.35891011 7099969
0.3562417 -0.0097438693 0.35942912 7099969
0.29378226 -0.0050923824 0.3492893 7099969
0.30382761 -0.0055596232 0.34985632 7099969
0.31342351 -0.0060244799 0.35037404 7099969
0.32406023 -0.0057421327 0.35086319 7099969
0.33363527 -0.0069671273 0.34988222 7099969
0.34354389 -0.0072225332 0.35243061 7099969
0.35393035 -0.0080814958 0.3523576 7099969
0.3633931 -0.0084186792 0.35254097 7099969
0.37096956 -0.0075765252 0.35328609 7099969
0.30461192 -0.0051053762 0.34275967 7099969
0.31300077 -0.0054471493 0.34394526 7099969
0.324072 -0.0057458282 0.3440786 7099969
0.33472815 -0.0070676804 0.34383431 7099969
0.34435061 -0.0066386461 0.34475389 7099969
0.35336676 -0.0068686604 0.34465167 7099969
0.36481231 -0.0067915916 0.34456447 7099969
0.36964491 -0.0068917274 0.34401193 7099969
0.37632045 -0.010606885 0.37345842 7099969
0.37854314 -0.01070863 0.3747057 7099969
0.31344664 -0.0050200224 0.36506823 7099969
0.32339442 -0.0054548979 0.36555529 7099969
0.33319506 -0.006197989 0.3646813 7099969
0.34310824 -0.0065647364 0.36532938 7099969
0.35304978 -0.007502079 0.36542904 7099969
0.36335403 -0.00790447 0.36569476 7099969
0.37272355 -0.0084884167 0.36737168 7099969
0.31410637 -0.0050114989 0.35812798 7099969
0.33379167 -0.0052350163 0.35850069 7099969
0.34648007 -0.0076032281 0.35867259 7099969
0.351008 -0.0077581406 0.35883081 7099969
0.36659724 -0.0078440905 0.35999042 7099969
0.37214413 -0.0078780651 0.35927084 7099969
0.37503815 -0.0125736 0.3861376 7099969
0.32243162 -0.005448103 0.37760058 7099969
0.33340374 -0.0052216053 0.37821898 7099969
0.34289664 -0.0062423944 0.37892976 7099969
0.3529537 -0.00618577 0.37927026 7099969
0.36302376 -0.0070493221 0.38034132 7099969
0.37258705 -0.0085485578 0.38080752 7099969
0.37831146 -0.0096083283 0.38108519 7099969
0.31261364 -0.0050099492 0.37160948 7099969
0.32311374 -0.0064436793 0.3720001 7099969
0.33316702 -0.0058563352 0.37192392 7099969
0.34314165 -0.0067326427 0.37213519 7099969
0.35240909 -0.0069268346 0.37280959 7099969
0.36265886 -0.0067860484 0.37337291 7099969
0.37128049 -0.0086534619 0.37403652 7099969
0.3321521 -0.00529176 0.39351028 7099969
0.34280658 -0.0052897334 0.39299214 7099969
0.35230526 -0.0064131618 0.39407501 7099969
0.3621968 -0.0069269538 0.39402032 7099969
0.37216079 -0.0081186295 0.39409193 7099969
0.37777376 -0.009052515 0.394988 7099969
0.35222507 -0.0057553053 0.38679832 7099969
0.3619414 -0.0063679218 0.38786718 7099969
0.37086713 -0.0077465177 0.38835484 7099969
0.35130626 -0.0056708455 0.40897077 7099969
0.36210147 -0.005867362 0.40910015 7099969
0.37191471 -0.0074055791 0.41019499 7099969
0.37699482 -0.0081987381 0.41001567 7099969
0.35174525 -0.0051321387 0.40158835 7099969
0.3619968 -0.0056967139 0.40201554 7099969
0.37162113 -0.006259203 0.40259358 7099969
0.37733147 -0.0073062778 0.40267318 7099969
0.3738744 -0.0091600418 0.4302907 7099969
0.36126089 -0.0051537752 0.42247689 7099969
0.37156406 -0.0074414611 0.42310005 7099969
0.37732849 -0.0091449022 0.41741285 7099969
0.35208818 -0.0050995946 0.41620585 7099969
0.36121514 -0.0056724548 0.4158684 7099969
0.36943808 -0.0069099665 0.416356 7099969
0.36069548 -0.0053403974 0.43669075 7099969
0.37081179 -0.0059927106 0.4375371 7099969
0.37668461 -0.0059863925 0.43848363 7099969
0.36914212 -0.0057672858 0.43066743 7099969
0.36897957 -0.0054581165 0.45009199 7099969
0.36943969 -0.0058691502 0.44415545 7099969
0.36008015 -0.0051503181 0.46516502 7099969
0.36865157 -0.0063234568 0.46511558 7099969
0.36705232 -0.0055937767 0.47281119 7099969
0.3661986 -0.0063626766 0.49240622 7099969
