# .PCD v0.7 - Point Cloud Data file format
VERSION 0.7
FIELDS x y z rgba
SIZE 4 4 4 4
TYPE F F F U
COUNT 1 1 1 1
WIDTH 220
HEIGHT 1
VIEWPOINT 0 0 0 1 0 0 0
POINTS 220
DATA ascii
-0.27718142 -0.061335742 0.16345905 12991539
-0.27305448 -0.061562002 0.1627485 12991539
-0.25975069 -0.061034441 0.16355376 12991539
-0.25155452 -0.061017394 0.16328308 12991539
-0.23919569 -0.061544716 0.16496992 12991539
-0.21958752 -0.061705768 0.16341263 12991539
-0.19630702 -0.061284542 0.16458108 12991539
-0.19440311 -0.062658012 0.16303749 12991539
-0.29728714 -0.058331788 0.15753251 12991539
-0.289738 -0.058853626 0.15683581 12991539
-0.28001472 -0.058814704 0.15635993 12991539
-0.26953459 -0.06057781 0.15601163 12991539
-0.25990674 -0.06006676 0.15688507 12991539
-0.24980167 -0.060516119 0.15648431 12991539
-0.23943602 -0.060334265 0.15636028 12991539
-0.22940616 -0.06003511 0.15714641 12991539
-0.21981095 -0.060051501 0.15739432 12991539
-0.20948768 -0.060071409 0.15745901 12991539
-0.2000431 -0.060478032 0.15811422 12991539
-0.18960088 -0.061180592 0.15733971 12991539
-0.18195581 -0.058287501 0.1582057 12991539
-0.29820204 -0.054754376 0.14783846 12991539
-0.25999412 -0.05827868 0.14890359 12991539
-0.2503064 -0.059967935 0.14903019 12991539
-0.23859137 -0.060484409 0.14900303 12991539
-0.23104842 -0.060396314 0.14941069 12991539
-0.21830989 -0.060178339 0.14969601 12991539
-0.21023057 -0.060047567 0.14917219 12991539
-0.19957095 -0.059254646 0.14939927 12991539
-0.18900362 -0.059435844 0.14927027 12991539
-0.18157329 -0.055496037 0.14866161 12991539
-0.29577133 -0.059996784 0.17703985 12991539
-0.28987014 -0.060809314 0.17704153 12991539
-0.27989984 -0.061207175 0.1779494 12991539
-0.27013418 -0.060919046 0.17808062 12991539
-0.26054356 -0.061339855 0.17730159 12991539
-0.24951637 -0.06067878 0.1776773 12991539
-0.24040543 -0.06133312 0.17798406 12991539
-0.23024198 -0.06072402 0.17746724 12991539
-0.21926749 -0.060294747 0.17778479 12991539
-0.21000092 -0.061048746 0.17777255 12991539
-0.20025828 -0.060020924 0.17802763 12991539
-0.19021177 -0.059490621 0.17808147 12991539
-0.29601389 -0.059592247 0.16716237 12991539
-0.28972307 -0.059601724 0.16844136 12991539
-0.28031307 -0.059820354 0.16883592 12991539
-0.26991281 -0.059719384 0.16884388 12991539
-0.2601445 -0.060254991 0.16946872 12991539
-0.24990585 -0.060975254 0.16894788 12991539
-0.23967956 -0.060798585 0.16919175 12991539
-0.22994672 -0.05952853 0.16958575 12991539
-0.21995044 -0.06038487 0.16994719 12991539
-0.20999715 -0.060234666 0.1697809 12991539
-0.20011175 -0.060160935 0.17053126 12991539
-0.19007748 -0.059583187 0.17071696 12991539
-0.18150479 -0.058063507 0.17002127 12991539
-0.29050633 -0.058115363 0.16164403 12991539
-0.26685378 -0.058374524 0.16203119 12991539
-0.24714765 -0.058712244 0.16253583 12991539
-0.23979768 -0.058632135 0.16264087 12991539
-0.23316558 -0.058286607 0.16189988 12991539
-0.22021864 -0.05925101 0.16334076 12991539
-0.20974043 -0.059144258 0.16340598 12991539
-0.18853801 -0.059153259 0.16384844 12991539
-0.18138419 -0.056097269 0.16382268 12991539
-0.29645044 -0.069305897 0.21072465 12991539
-0.29614502 -0.060681403 0.19783899 12991539
-0.29039493 -0.061244488 0.1986804 12991539
-0.27990028 -0.061436772 0.19860816 12991539
-0.27140245 -0.061286807 0.19859383 12991539
-0.26008007 -0.061625183 0.19875892 12991539
-0.2498766 -0.061940312 0.19943614 12991539
-0.24099176 -0.062131763 0.19966894 12991539
-0.23479691 -0.061353505 0.19884318 12991539
-0.19974087 -0.061737597 0.19941701 12991539
-0.29664752 -0.059896171 0.19151206 12991539
-0.29019856 -0.060086131 0.19186503 12991539
-0.28043115 -0.060731292 0.19140022 12991539
-0.27037358 -0.0610376 0.19174701 12991539
-0.26025543 -0.06090188 0.19170761 12991539
-0.25032133 -0.061015129 0.19195411 12991539
-0.24022684 -0.060553789 0.19312418 12991539
-0.23062515 -0.060356021 0.19251065 12991539
-0.2205264 -0.060319722 0.19323201 12991539
-0.21016335 -0.059668541 0.19313014 12991539
-0.20069401 -0.059557974 0.19409192 12991539
-0.19091573 -0.058969617 0.19343665 12991539
-0.18473683 -0.057025313 0.19237658 12991539
-0.2964496 -0.059142828 0.18279184 12991539
-0.29042709 -0.059755027 0.183533 12991539
-0.27995858 -0.060550094 0.18375951 12991539
-0.27023318 -0.060477674 0.18367615 12991539
-0.25943848 -0.059802234 0.18301465 12991539
-0.25074449 -0.060160875 0.18334652 12991539
-0.24004535 -0.060008347 0.18452108 12991539
-0.22965693 -0.060128927 0.18355024 12991539
-0.2200352 -0.059723735 0.18397322 12991539
-0.21016154 -0.059343398 0.18458426 12991539
-0.19978787 -0.059384465 0.1843764 12991539
-0.18985248 -0.058114529 0.18469064 12991539
-0.18361145 -0.054080725 0.18498082 12991539
-0.18569328 -0.057004094 0.17796217 12991539
-0.18105738 -0.053554595 0.17758402 12991539
-0.29808423 -0.060580373 0.21494739 12991539
-0.29045817 -0.060725987 0.21346088 12991539
-0.28061962 -0.060808778 0.2144011 12991539
-0.27061617 -0.060403287 0.21459742 12991539
-0.26140374 -0.059952497 0.21416028 12991539
-0.25043789 -0.060106337 0.21464811 12991539
-0.24113339 -0.059985459 0.21505016 12991539
-0.23090956 -0.059385955 0.21487372 12991539
-0.22092751 -0.05927068 0.21465135 12991539
-0.21074834 -0.059616089 0.21422572 12991539
-0.2002607 -0.058499217 0.21435489 12991539
-0.19284447 -0.058303356 0.21406241 12991539
-0.29772684 -0.059640408 0.20601326 12991539
-0.29075092 -0.060600102 0.20426688 12991539
-0.28065398 -0.06041497 0.20506647 12991539
-0.27048269 -0.060683548 0.20491543 12991539
-0.2605218 -0.059774041 0.20570865 12991539
-0.25054255 -0.060752332 0.20648475 12991539
-0.24028699 -0.059822083 0.20644338 12991539
-0.23029749 -0.059255779 0.20644161 12991539
-0.22035612 -0.059065521 0.20634554 12991539
-0.21043859 -0.059482574 0.20657799 12991539
-0.20058031 -0.058828056 0.20714074 12991539
-0.19079755 -0.058032751 0.20754546 12991539
-0.18455161 -0.057221115 0.20525402 12991539
-0.28684074 -0.058759868 0.19856384 12991539
-0.23019604 -0.059213281 0.19924128 12991539
-0.21945617 -0.059044123 0.19952792 12991539
-0.21088748 -0.058875501 0.19928992 12991539
-0.19984554 -0.05946219 0.1996132 12991539
-0.189473 -0.057846725 0.19915131 12991539
-0.18412516 -0.05353117 0.19851089 12991539
-0.18521875 -0.053854287 0.19123454 12991539
-0.30080822 -0.060241938 0.23493727 12991539
-0.28927711 -0.06112498 0.23565738 12991539
-0.28277767 -0.061547339 0.23548928 12991539
-0.26124164 -0.060675442 0.23558491 12991539
-0.29818377 -0.059209287 0.22881822 12991539
-0.29071009 -0.060335636 0.22838175 12991539
-0.28112438 -0.060284376 0.22808573 12991539
-0.27072433 -0.059864879 0.22850874 12991539
-0.2607041 -0.060040057 0.22893193 12991539
-0.25060743 -0.059965134 0.22895707 12991539
-0.24106716 -0.059261799 0.23003225 12991539
-0.23120609 -0.059191525 0.23022227 12991539
-0.2214004 -0.058808029 0.22942886 12991539
-0.21103974 -0.057245851 0.22824815 12991539
-0.20065604 -0.057790279 0.23009038 12991539
-0.19250357 -0.057614207 0.22945836 12991539
-0.29750675 -0.059644103 0.22041047 12991539
-0.29114068 -0.059868753 0.22030973 12991539
-0.28007239 -0.060986876 0.22008143 12991539
-0.27066427 -0.060069919 0.22029769 12991539
-0.26048431 -0.059944808 0.22055982 12991539
-0.25142422 -0.059680164 0.22061396 12991539
-0.24080557 -0.058908284 0.22145812 12991539
-0.23074389 -0.058883727 0.22124608 12991539
-0.2207633 -0.058117151 0.22112852 12991539
-0.2105321 -0.05755198 0.22088619 12991539
-0.20062257 -0.057759166 0.22063632 12991539
-0.19056138 -0.057298243 0.22097899 12991539
-0.18539023 -0.055348456 0.21923603 12991539
-0.18690062 -0.052995682 0.21332391 12991539
-0.18519911 -0.052282214 0.21340182 12991539
-0.2984519 -0.059823632 0.24959393 12991539
-0.29121163 -0.060608208 0.2501668 12991539
-0.28209388 -0.060204864 0.24961279 12991539
-0.27159676 -0.059834838 0.24969266 12991539
-0.26011181 -0.059714437 0.25039917 12991539
-0.25337407 -0.059369206 0.25066006 12991539
-0.24223305 -0.058883667 0.25088641 12991539
-0.2334094 -0.05819726 0.24986084 12991539
-0.29893211 -0.057514369 0.24095322 12991539
-0.2913377 -0.05935806 0.24187231 12991539
-0.28065115 -0.05978173 0.24129725 12991539
-0.27114469 -0.059593797 0.24146429 12991539
-0.26123941 -0.059574842 0.24167098 12991539
-0.25096965 -0.059210062 0.2417852 12991539
-0.24089323 -0.059220254 0.24209116 12991539
-0.23125644 -0.058565915 0.24250714 12991539
-0.22129101 -0.057773471 0.24311452 12991539
-0.21137547 -0.057046473 0.24342188 12991539
-0.2011587 -0.057317257 0.24439242 12991539
-0.19145678 -0.056702375 0.24339215 12991539
-0.18432863 -0.055897832 0.24372852 12991539
-0.29948366 -0.056547403 0.23301297 12991539
-0.27794021 -0.057751656 0.23481227 12991539
-0.27375701 -0.057603836 0.23459142 12991539
-0.26446488 -0.057382882 0.2342613 12991539
-0.25195414 -0.058036387 0.23523764 12991539
-0.2278242 -0.058300734 0.23563261 12991539
-0.21937506 -0.057819426 0.23529199 12991539
-0.21105115 -0.057093024 0.23452026 12991539
-0.20112886 -0.057771802 0.23640579 12991539
-0.19003378 -0.055933356 0.23495609 12991539
-0.18472773 -0.051362574 0.23644467 12991539
-0.30645081 -0.055262625 0.25086981 12991539
-0.30279934 -0.057051599 0.24994697 12991539
-0.28965926 -0.060214579 0.25467268 12991539
-0.2834495 -0.058565736 0.25364748 12991539
-0.2689859 -0.056894302 0.25366727 12991539
-0.26493296 -0.05821532 0.25240481 12991539
-0.24943331 -0.059258223 0.25324351 12991539
-0.24077275 -0.058931053 0.25373524 12991539
-0.2313361 -0.056615293 0.25348988 12991539
-0.22151171 -0.057142854 0.25265175 12991539
-0.2112769 -0.057609916 0.25389111 12991539
-0.20151581 -0.057261288 0.25545067 12991539
-0.19260021 -0.05540061 0.25505698 12991539
-0.18517694 -0.055618823 0.25319979 12991539
-0.30639514 -0.053690672 0.24852122 12991539
-0.30369458 -0.053831875 0.24693437 12991539
-0.22767702 -0.055920839 0.25005543 12991539
-0.22312811 -0.056552231 0.24920081 12991539
-0.21092156 -0.056412816 0.24935213 12991539
-0.18998326 -0.054737151 0.25008452 12991539
-0.18470936 -0.053067565 0.24998733 12991539
