# .PCD v0.7 - Point Cloud Data file format
VERSION 0.7
FIELDS x y z rgba
SIZE 4 4 4 4
TYPE F F F U
COUNT 1 1 1 1
WIDTH 1074
HEIGHT 1
VIEWPOINT 0 0 0 1 0 0 0
POINTS 1074
DATA ascii
-0.06326966 -0.0079903007 0.5762732 10646604
-0.052946333 -0.0073778033 0.57698917 10645330
-0.04335402 -0.0081550479 0.57746524 10645840
-0.033216845 -0.010350347 0.57914734 10842961
-0.022893284 -0.010541975 0.57967937 10646617
-0.014095587 -0.009568274 0.57913828 10646618
-0.0030047295 -0.0090580583 0.57854873 10516313
0.0066243294 -0.0097806454 0.57905626 10451550
0.015973927 -0.0092315674 0.57951331 10516572
0.026539214 -0.010573924 0.5810644 10779996
0.036225609 -0.011167169 0.58103079 10977372
0.046807785 -0.012181282 0.58292168 11107934
0.056851339 -0.011814833 0.58249819 11239008
0.065848626 -0.012784183 0.58361834 11370845
0.075895943 -0.011711299 0.58237869 11107932
0.088833615 -0.012366116 0.58313531 11368535
0.0971874 -0.012736619 0.58356351 11368534
0.10575005 -0.013243258 0.58414888 11301973
0.1177104 -0.013665915 0.58463728 11434063
0.12642565 -0.014033496 0.58506203 11433554
0.13450132 -0.014230967 0.58529019 11566934
0.23106481 -0.01787436 0.58950037 12620110
0.24777561 -0.018808365 0.59057951 12356429
0.25598395 -0.019869447 0.59133524 11632207
0.26615876 -0.019518316 0.59139985 11369036
0.2789425 -0.020466506 0.59249562 11631945
0.28552362 -0.02069217 0.59275615 11566408
0.29703563 -0.020820737 0.59290475 11830089
0.30590361 -0.022176564 0.59447134 11566920
0.31502444 -0.022234023 0.59453773 11304266
0.32658657 -0.022696495 0.59507215 11043159
0.33634549 -0.0240888 0.59626442 11172683
0.34616709 -0.023588479 0.59610283 10976070
0.35567299 -0.024603009 0.5972752 11107392
0.36589602 -0.026163518 0.59868413 6704194
0.37603477 -0.027891457 0.59769493 8943459
0.38281021 -0.030226588 0.59696627 13806203
-0.3692033 0.010795116 0.55397099 5326923
-0.36187461 0.0096023679 0.55487412 10058313
-0.35224906 0.010717928 0.55537719 11041353
-0.3416276 0.01001972 0.55545741 10910792
-0.33195576 0.0088825822 0.55662984 10976843
-0.32207212 0.0084149837 0.55721253 11107401
-0.31169829 0.0085058212 0.55680454 11370057
-0.30181995 0.0083522201 0.55787075 11567173
-0.29210266 0.0083559752 0.5583759 11304778
-0.28202778 0.0077344775 0.55844182 11633486
-0.27206731 0.0067602992 0.5592013 11304527
-0.26269895 0.0059790611 0.55976856 11566672
-0.25211278 0.0055928826 0.55932742 11501651
-0.24220091 0.0059828162 0.56020552 11173200
-0.23261227 0.0057932734 0.56011486 11567179
-0.22223163 0.0054606795 0.5614785 11435596
-0.21203984 0.003477037 0.56219721 11040334
-0.20224947 0.0028395057 0.56231219 10843979
-0.1924842 0.0021757483 0.56276697 11106385
-0.18206637 0.0011988878 0.56300789 10844499
-0.17246953 0.0012493134 0.56367838 10975312
-0.16250479 -0.00029027462 0.56311285 10910548
-0.1520818 -0.0010035038 0.56371886 10713679
-0.14240333 0.00028079748 0.56564569 10712910
-0.1325637 -0.0015618205 0.56444299 10646865
-0.12284655 -0.0013051629 0.56572801 10843470
-0.11239418 -0.0034688711 0.5658254 11040589
-0.10235786 -0.0026605129 0.56664157 11041105
-0.093051434 -0.0028669238 0.56736398 10976340
-0.082692154 -0.0041350722 0.5671075 10975572
-0.072555207 -0.0048228502 0.56796157 10975317
-0.062146883 -0.0050799251 0.5687567 11041363
-0.052827556 -0.0048065782 0.56897318 10975829
-0.042656995 -0.0060150623 0.56908226 11105872
-0.032721732 -0.007422924 0.57027191 11106899
-0.023007378 -0.0083907247 0.57051909 11108693
-0.012742262 -0.0077413917 0.57069671 11567188
-0.0029683148 -0.0078387856 0.57039076 11500888
0.0074309953 -0.0088620782 0.57042712 11567709
0.017486013 -0.007427454 0.5721038 11436640
0.027034489 -0.0080903769 0.57355964 11633242
0.036915734 -0.0093908906 0.57243884 11503196
0.047378201 -0.008965075 0.57364476 11567452
0.057378747 -0.009678483 0.57359332 11566937
0.066852607 -0.0099401474 0.57477552 11632476
0.076869786 -0.010425627 0.57490802 11632989
0.087351061 -0.010304391 0.57587171 11371096
0.097240135 -0.010596633 0.57617223 11305048
0.10690489 -0.009891808 0.5780741 11305814
0.11707069 -0.0103845 0.57825631 11240281
0.12713896 -0.011396527 0.57801515 11107930
0.13702588 -0.010904312 0.57931638 11238231
0.14713098 -0.011910439 0.5786159 11301713
0.15750626 -0.012047648 0.57960576 11105616
0.16722675 -0.012604117 0.58035409 11041619
0.17687733 -0.013174295 0.58105958 10910547
0.18658075 -0.013769686 0.58077514 10778197
0.19730771 -0.014293671 0.58139932 10646604
0.20694636 -0.013768613 0.58192635 10777680
0.21673578 -0.014028668 0.58338976 10908241
0.22696315 -0.014461458 0.58389741 10842449
0.23680362 -0.01448518 0.58395416 10579788
0.24670623 -0.017005801 0.58362317 10448973
0.25689772 -0.018123567 0.58350146 10843212
0.2666302 -0.018806577 0.58395565 10842442
0.27690393 -0.017399609 0.58552504 10644810
0.28650814 -0.018321276 0.5860436 10711111
0.29666278 -0.019460499 0.58584005 10777162
0.30678543 -0.020234942 0.58602566 10645063
0.31675977 -0.020684302 0.58632922 10711623
0.32650471 -0.02124846 0.58700877 10710854
0.33627027 -0.022125959 0.5869422 10646594
0.34650877 -0.022300959 0.58764887 10580039
0.35663602 -0.022853494 0.58816493 10645314
0.36624739 -0.024502158 0.58922428 6638657
0.37536612 -0.026624084 0.58920014 7826515
0.38434863 -0.026574075 0.5888558 13676669
-0.36840996 0.0099301934 0.54667479 5917511
-0.35803154 0.0094924569 0.54718065 10521680
-0.35063416 0.011884272 0.54721844 10713677
-0.34169614 0.012220562 0.54730272 10909772
-0.33233696 0.01149714 0.54792047 10909518
-0.3223412 0.0097439885 0.54975516 10714185
-0.31156391 0.0093542337 0.54930502 10318414
-0.30175188 0.0099852681 0.54944909 10252625
-0.29101902 0.010891855 0.54935765 11172429
-0.28175816 0.0098377466 0.550129 10449232
-0.27233446 0.0084947944 0.55074638 10449487
-0.26233 0.0071449876 0.55111551 10448969
-0.25028759 0.0061053038 0.55224067 10974037
-0.24142747 0.0064962506 0.55217087 10909266
-0.23083179 0.0064746141 0.55331653 10777157
-0.22201352 0.0063382983 0.55349958 10712133
-0.21177322 0.0057916641 0.55432218 10844748
-0.20177239 0.0054354072 0.55458522 10581325
-0.19136712 0.004783392 0.5552007 10776650
-0.18174122 0.0031119585 0.55455321 10908497
-0.17242105 0.0035738349 0.55489272 10844497
-0.16383991 0.001585722 0.55631697 11039060
-0.15046227 0.00073730946 0.55729735 10187858
-0.14270298 0.0024821162 0.55757332 10581845
-0.13296309 0.0007199049 0.55789036 10253906
-0.1239741 0.00010710955 0.55802542 10058067
-0.10721866 -0.0010867119 0.55940503 11038025
-0.10177141 -0.00089025497 0.55917794 10777937
-0.096840195 -0.0015244484 0.55991083 10908246
-0.076083265 -0.002399981 0.5609225 11169617
0.0118406 -0.0046877861 0.56356609 10647905
0.015425686 -0.0054479837 0.56444442 11109470
0.040674444 -0.0073247552 0.5666132 10912346
0.048156939 -0.0071857572 0.56645244 11042906
0.058298618 -0.0072563887 0.56653392 11041369
0.067080908 -0.0081544518 0.56757182 11172443
0.077882521 -0.0087047815 0.56820774 11238236
0.086549819 -0.0088809133 0.56841123 11237974
0.099054806 -0.0092821121 0.56887478 11107413
0.10750383 -0.0089312792 0.56846935 10778702
0.11718444 -0.0098525286 0.56953388 11172690
0.12753527 -0.0096082687 0.56949294 10910033
0.13780241 -0.0092257857 0.56976473 10448975
0.14786364 -0.0097881556 0.56963581 10515023
0.15715927 -0.0103513 0.57091928 10908747
0.16708089 -0.011957169 0.57196575 11827785
0.1770796 -0.011941731 0.57194793 11302984
0.18913937 -0.012166262 0.57220739 10842441
0.19745211 -0.01153326 0.57147592 10448461
0.20733178 -0.010841548 0.57248271 10579790
0.21686517 -0.011431336 0.5735656 10645324
0.22746105 -0.013477623 0.57486886 10841671
0.23668028 -0.01368922 0.57593209 10909002
0.2460244 -0.015366435 0.57590526 10580296
0.25745597 -0.01601392 0.57665348 10381640
0.2678009 -0.015910387 0.57653379 10121033
0.27668804 -0.016659796 0.57739973 10382921
0.28716293 -0.017721534 0.57862675 10581321
0.29581165 -0.018086314 0.57904828 10778692
0.3321363 -0.019618511 0.58081871 10516280
0.20480418 -0.0074278712 0.56673235 10842447
-0.13305287 -0.0086427927 0.59411454 9265981
-0.12533897 -0.0085353255 0.59331131 9201996
-0.11390909 -0.008292377 0.59370971 10251344
-0.10597983 -0.0086268783 0.59409612 10383440
-0.073381767 -0.010001838 0.59568495 10579020
-0.063958399 -0.010564685 0.59633535 10579026
-0.053794179 -0.01232934 0.59805268 10186066
-0.045082424 -0.012381673 0.59819978 10186327
-0.035114143 -0.012643814 0.59853399 10318932
-0.023682786 -0.012263536 0.59829837 10711384
-0.016114883 -0.012417316 0.59847605 11104094
-0.0037804793 -0.012937605 0.59907722 11041374
0.0050298092 -0.013309181 0.59950662 10910048
0.012078041 -0.013606489 0.59985018 10911324
0.024412446 -0.014126718 0.60045135 11042915
0.038508907 -0.014721334 0.60113835 11109996
0.045500349 -0.015595138 0.60214812 11109479
0.053831533 -0.015698433 0.60226744 11174753
0.065820806 -0.015873313 0.6024695 11111273
0.089608587 -0.016876698 0.60362893 11044189
0.095718995 -0.017713368 0.60459572 10912861
0.10194299 -0.017396927 0.60423011 10518871
0.11956356 -0.018140197 0.60508889 10516309
0.12220666 -0.018251657 0.6052177 10647380
0.2799108 -0.024903536 0.61290407 10842429
0.29923671 -0.026297629 0.61451495 10513990
0.30540386 -0.026557744 0.61481553 10448703
0.31578869 -0.02711159 0.61545545 10314822
0.32443455 -0.027494073 0.61589742 10447687
0.33535883 -0.027821243 0.61627549 10710851
0.34538171 -0.027858019 0.61631805 10515015
0.35562578 -0.029457152 0.61722547 10382405
0.36496779 -0.030733347 0.6185773 5849668
0.37477076 -0.032025814 0.62007999 9339248
0.38140368 -0.032030106 0.62043363 13544582
-0.37111339 0.0060679317 0.57572699 5588552
-0.36385599 0.0061500072 0.57625735 9269066
-0.35295263 0.0070533752 0.57597744 10319435
-0.34361243 0.0064153075 0.57584155 10254409
-0.33357674 0.005715549 0.57708669 10844226
-0.32440183 0.0053902864 0.57722008 10186568
-0.30981067 0.0057599545 0.57747203 10117194
-0.30188143 0.0054255128 0.57785845 10379597
-0.28960377 0.0043287277 0.57912582 10973771
-0.28388259 0.0036866069 0.57986778 10843977
-0.27458844 0.0040813088 0.57941169 10384461
-0.26111716 0.0031271577 0.58051425 10515281
-0.2534816 0.0028050542 0.58088636 10777430
-0.2438474 0.0019487739 0.58167207 10843466
-0.23313071 0.00059610605 0.58330607 10448973
-0.22416228 0.00071108341 0.58313632 10844239
-0.21366306 0.00067561865 0.58314323 10581833
-0.20321634 -0.00051426888 0.58387315 10712399
-0.19352345 -0.0014401078 0.58462745 10910030
-0.18371508 -0.002186656 0.58552229 10449486
-0.17361361 -0.0023584366 0.58602995 10646091
-0.16372114 -0.0024523139 0.58615708 10712651
-0.15381995 -0.0032829642 0.58632672 10580043
-0.14328671 -0.0035938621 0.58695138 10448717
-0.13364267 -0.0050004125 0.58788836 10448457
-0.12388118 -0.0058833361 0.58797145 10646343
-0.11381686 -0.0065438151 0.58851963 10579788
-0.1041473 -0.0070261955 0.58842593 10514510
-0.094002694 -0.0070410967 0.58951271 10187344
-0.084035143 -0.0067750216 0.58931684 10186574
-0.07363712 -0.0076693296 0.59050637 10646353
-0.064092562 -0.0084558725 0.59084171 10448464
-0.053672906 -0.0093718767 0.59111059 10317903
-0.043974739 -0.010691345 0.59048706 10384977
-0.034569837 -0.011478722 0.59122211 10450522
-0.023182619 -0.012497127 0.59132397 10777689
-0.014176087 -0.011061907 0.59245855 10582365
-0.0040423945 -0.011071146 0.59337288 10976349
0.006232895 -0.012010753 0.59377849 11041884
0.015909681 -0.01180011 0.59476745 11042398
0.025465904 -0.011333227 0.59580052 11108193
0.036375761 -0.012858093 0.59527427 11305314
0.045760725 -0.013704777 0.59568495 11240290
0.055544548 -0.012530208 0.59748596 11174242
0.065941691 -0.014760435 0.5964973 11304546
0.076010585 -0.014732182 0.59650302 11042402
0.085841291 -0.01485157 0.598176 10910052
0.096054003 -0.014136255 0.5995453 10713954
0.10552559 -0.014247954 0.59961897 10779229
0.11548352 -0.014905691 0.60020524 10909270
0.12583125 -0.0162884 0.60024911 10908757
0.13545333 -0.014903665 0.60045028 11105109
0.14470416 -0.014391005 0.6007567 10974037
0.15677473 -0.014595807 0.60099334 10973525
0.1652416 -0.014711738 0.60112727 10974801
0.17123112 -0.014530182 0.60091746 10711887
0.186856 -0.015575171 0.60212499 10777682
0.19584313 -0.016147196 0.602786 10515277
0.20549291 -0.018097401 0.60465741 10843470
0.21578199 -0.017769992 0.60450035 10515280
0.22562364 -0.017899573 0.60481089 10710611
0.23496164 -0.018045306 0.60497928 10712145
0.24638754 -0.018412769 0.60540384 10775630
0.25635231 -0.02048707 0.60605413 10382921
0.26565254 -0.021472871 0.60692561 10513737
0.27562612 -0.022149622 0.60777187 10579528
0.28562295 -0.022139311 0.60741758 10710345
0.29585305 -0.022928774 0.60827106 10579785
0.30525687 -0.025391877 0.60771251 10645314
0.31546688 -0.024968386 0.60892338 10513987
0.32536837 -0.024487138 0.61023992 10711364
0.33528924 -0.025859296 0.60976893 10842691
0.3451803 -0.026180029 0.61040598 10712386
0.35476989 -0.027429402 0.61023569 10449219
0.36480907 -0.029486001 0.609285 6309441
0.37496534 -0.029588103 0.61005402 8615525
0.38186744 -0.029392302 0.61058909 13544834
-0.36987856 0.0064168572 0.56776232 5457729
-0.36233431 0.0073701143 0.56818169 9464656
-0.35260051 0.0087684989 0.56810808 10383434
-0.34292904 0.0084225535 0.56920886 10253897
-0.33257109 0.0076863766 0.569628 10449992
-0.32245961 0.0076753497 0.57016462 10515023
-0.31290129 0.007181108 0.5702427 10647631
-0.30290061 0.0062180161 0.57069522 10515790
-0.29270652 0.0070231557 0.57193726 10515538
-0.28277788 0.0067099929 0.57236284 10711632
-0.27285862 0.0055414438 0.57251084 10910031
-0.26280382 0.0052770376 0.57296538 10909259
-0.25293207 0.0046536922 0.5733065 10908748
-0.24317014 0.0043506026 0.57390463 10777164
-0.23332077 0.0043262839 0.57435918 10973769
-0.22330773 0.0035806298 0.57505625 10777163
-0.21362649 0.001809001 0.57586145 10777422
-0.20354399 0.00095415115 0.57651424 10973007
-0.19298898 0.00037908554 0.57684332 10973516
-0.18288235 -9.1195107e-05 0.57682735 10579790
-0.17303999 -0.00072079897 0.57677394 10580301
-0.16333249 -0.0011383891 0.57750851 10711882
-0.15269265 -0.0014744401 0.57867968 10448715
-0.14316207 -0.0021314025 0.57881701 10448462
-0.13353877 -0.0028994679 0.58009207 10580558
-0.12259562 -0.0046156645 0.57972926 10843209
-0.11328894 -0.0046333671 0.57997304 10908491
-0.10384125 -0.0049608946 0.58077163 10908750
-0.093139805 -0.0058504343 0.58095509 10581581
-0.083448499 -0.0070334673 0.58181256 10319182
-0.074530058 -0.0078892112 0.58254665 10516303
-0.062482644 -0.0075646639 0.58304495 10516560
-0.053968549 -0.0077598095 0.58327043 10910801
-0.044325951 -0.0080265999 0.58342475 10778963
-0.034553159 -0.01008606 0.58508527 10974801
-0.02143752 -0.01063931 0.58572453 11106139
-0.012304524 -0.009216845 0.58473581 10778970
-0.0039970288 -0.0090894699 0.58495247 10648412
0.0069359769 -0.010129035 0.58541268 10714460
0.016601458 -0.0099084973 0.58557481 10845532
0.025428597 -0.01146698 0.58668089 11108189
0.036723945 -0.011762023 0.58702171 11436124
0.047299676 -0.013027906 0.58848453 11305569
0.056293689 -0.012135446 0.58887231 11304802
0.066776961 -0.013733327 0.58929974 10584159
0.077009946 -0.012520373 0.58835113 10976349
0.086102843 -0.012476802 0.58845925 11173213
0.09594693 -0.012703538 0.59018797 10911073
0.10663836 -0.012407959 0.59016955 11172698
0.1156394 -0.013601005 0.59087437 11107668
0.12572911 -0.014544666 0.59138346 10975063
0.13643731 -0.013456643 0.59203643 10974296
0.14619388 -0.011678755 0.59330797 11106132
0.15610996 -0.012933075 0.59313416 11303252
0.16614562 -0.013088286 0.59337038 11435094
0.17623647 -0.013423145 0.5942474 11435093
0.18607306 -0.014781952 0.5942623 11500113
0.19599654 -0.015312552 0.59418076 11368525
0.20622432 -0.016211927 0.59445608 11369040
0.21650694 -0.016441822 0.59499139 11434833
0.22631232 -0.016759992 0.59599257 11303759
0.23645185 -0.017010629 0.59632266 11435084
0.2458486 -0.018033743 0.59700906 11171149
0.25568399 -0.019569159 0.59840488 10843469
0.26604399 -0.020024955 0.59777075 10777677
0.27584431 -0.020072281 0.59769428 10974028
0.28563124 -0.021325767 0.59931004 10777161
0.29554647 -0.021145582 0.59898543 10843207
0.30547357 -0.023158193 0.60019016 10842442
0.31657454 -0.023259461 0.60044616 10909765
0.32586655 -0.023122013 0.60091251 10777666
0.33531937 -0.024562359 0.6022203 10514498
0.3462036 -0.02470988 0.60198313 10778184
0.3555139 -0.025566578 0.60297322 10120516
0.36359817 -0.026688397 0.60426944 7361602
0.3755292 -0.027383149 0.60507226 8219747
0.38164982 -0.027641296 0.60537058 13874569
-0.37138599 0.011016071 0.56070143 5261386
-0.35242242 0.010407746 0.56140441 10513475
-0.34478244 0.01012373 0.56173247 10382150
-0.31892344 0.0088032484 0.56325841 10712145
-0.31414455 0.0089299679 0.56311196 10908490
-0.30403087 0.0084623694 0.56365228 11104837
-0.29181778 0.0076599121 0.56457949 10645582
-0.28193876 0.0076741576 0.5645631 11170637
-0.27607903 0.0069960952 0.5653466 11039055
-0.26121461 0.0063691139 0.56607109 11040072
-0.2517488 0.0061996579 0.56626683 10909003
-0.24277602 0.006147325 0.56666696 10908492
-0.23251514 0.0063815117 0.56733024 10645581
-0.22345935 0.005104959 0.56753188 10449482
0.14099833 -0.010596037 0.58567452 11834203
0.1476436 -0.010876358 0.58599836 11636315
0.1567371 -0.011259913 0.58644158 11966290
0.18908903 -0.012624443 0.58801842 11307854
0.19433527 -0.012845755 0.58827412 11306825
0.20701374 -0.013380527 0.58889204 11373390
0.21357156 -0.013657153 0.58921164 11435865
0.2231897 -0.014062822 0.58968043 11238993
0.23892845 -0.014726698 0.59044755 10978894
0.24242595 -0.01487422 0.59061801 10978122
-0.087127902 -0.015836 0.61770779 10184781
-0.021285864 -0.019198418 0.62159306 9794399
-0.016395418 -0.020757198 0.62278301 10778721
0.01528339 -0.020155668 0.6226992 10911081
0.019736055 -0.020343482 0.62291622 11108716
0.37060609 -0.035143018 0.64001727 5920845
-0.37304285 0.0021592379 0.59691435 5523268
-0.36580789 0.002550602 0.59646189 8415816
-0.3206493 0.0010359287 0.59821206 10978642
-0.31441554 0.00077301264 0.59851587 10846802
-0.30643901 4.6491623e-05 0.59935546 10711886
-0.28057528 -0.00065439939 0.60016525 10909266
-0.27879423 -0.00072950125 0.60025203 10976336
-0.22358118 -0.0030583143 0.60294312 11037007
-0.21433108 -0.0039685965 0.60399503 10710090
-0.20533696 -0.0043597221 0.60444707 11104317
-0.19370519 -0.004786551 0.60494018 11038280
-0.1843771 -0.0057985783 0.60610968 10646606
-0.17526253 -0.0057789683 0.60608703 10383700
-0.16465914 -0.0060637593 0.60641599 10646090
-0.15452814 -0.0077095032 0.60729903 10383947
-0.1449836 -0.0081260204 0.60799468 10448717
-0.13395332 -0.0070338249 0.60753685 11040594
-0.12349918 -0.0096978545 0.60992062 10317905
-0.11548372 -0.0093922019 0.61009234 10514260
-0.10494747 -0.01099205 0.61122322 10711376
-0.094835319 -0.011920989 0.61170852 10514514
-0.085341185 -0.012250304 0.61236042 10909266
-0.075311989 -0.01197207 0.61324322 10909005
-0.065752499 -0.011937559 0.61276674 10777680
-0.055310085 -0.012291074 0.61165911 11239510
-0.044871993 -0.013391256 0.61262381 10976345
-0.034956299 -0.012845397 0.61409962 10911325
-0.024896357 -0.01477325 0.61454421 11174239
-0.015831159 -0.015604794 0.61497205 10977635
-0.0055674068 -0.014575779 0.61510563 11570531
0.0052708373 -0.015639901 0.61534208 11571049
0.014770876 -0.017219126 0.61691189 11635304
0.024423836 -0.017675579 0.61716992 11897962
0.034719501 -0.018845975 0.61575246 12161127
0.044092014 -0.0184533 0.61733633 12227179
0.054453313 -0.017839134 0.61591583 12556664
0.064900368 -0.017098248 0.61774743 12491365
0.074542329 -0.017703295 0.61922896 12029796
0.084182203 -0.017126322 0.61919898 11898721
0.094632626 -0.017882168 0.61930835 11702114
0.10412534 -0.018096507 0.61991262 11438688
0.11415113 -0.01808387 0.62030542 11108962
0.12272136 -0.018835604 0.62117386 11174240
0.15798351 -0.019445181 0.62187821 11171672
0.16316871 -0.019761384 0.62224364 11105623
0.1847426 -0.020782769 0.62342399 10774098
0.18962614 -0.020487249 0.62308234 10118229
0.22880958 -0.022139966 0.62499213 9791318
0.23512958 -0.023342729 0.62638211 10446660
0.24261127 -0.023242176 0.62626594 9987396
0.25472945 -0.023567557 0.62664187 10117449
0.26490697 -0.02399683 0.62713796 9526345
0.27407891 -0.025303602 0.62847817 9857358
0.28352073 -0.026141644 0.62885225 10250316
0.29334456 -0.025980413 0.62923902 10314824
0.30460116 -0.027400851 0.63005239 10250819
0.3139438 -0.028409481 0.63019931 10250822
0.32368916 -0.028412282 0.63119817 10316360
0.33435062 -0.02859962 0.63162297 10052420
0.34455916 -0.029504597 0.63143903 10119237
0.35390666 -0.0315364 0.63145632 10183750
0.36454344 -0.032320619 0.63238984 5521990
0.37376449 -0.034605563 0.63253915 9339243
0.38177925 -0.033880889 0.62786192 13414021
-0.37315819 0.0061139464 0.58974063 5064005
-0.36399385 0.0054371357 0.59007001 9860943
-0.35415608 0.0057548881 0.5912748 10647629
-0.34433535 0.0057057738 0.59166998 10385226
-0.33407864 0.004987359 0.59087276 10714192
-0.32403874 0.0041905046 0.59220064 10910289
-0.31422091 0.003705442 0.59263861 10778961
-0.30418819 0.004172802 0.59388882 10844490
-0.29366815 0.0037415624 0.59384066 10581068
-0.28390288 0.0030073524 0.5940609 10515014
-0.27402413 0.0022037625 0.59464937 10647887
-0.2642273 0.0014562011 0.59484982 10516565
-0.2541039 0.0011748672 0.59591204 10713678
-0.2437619 -0.00041759014 0.59525919 10450256
-0.23421752 -0.0010840297 0.59564722 10712656
-0.2245086 -0.0012501478 0.5960443 10844752
-0.21455669 -0.00082468987 0.59721816 10778704
-0.2042398 -0.0017063618 0.59778488 11106124
-0.19413146 -0.0022208691 0.59793019 10975053
-0.18406616 -0.003205359 0.59783375 10843210
-0.17412928 -0.003780961 0.59842926 10713935
-0.16432868 -0.0036553741 0.59890944 10778962
-0.15433949 -0.0038363338 0.60008687 10909525
-0.14430037 -0.0048269629 0.59992456 10844240
-0.13491477 -0.0063499808 0.60109901 11240020
-0.12413888 -0.0081478953 0.60054672 11370834
-0.11485713 -0.0069093108 0.60164905 10843986
-0.10413732 -0.0068936944 0.60209537 10712916
-0.094456688 -0.0080587864 0.60138571 10383695
-0.084774211 -0.0079223514 0.60232311 10187346
-0.074551761 -0.0091634989 0.60284996 10383691
-0.064880803 -0.01040405 0.60296768 10449741
-0.055028331 -0.012687922 0.60427231 10713941
-0.044140108 -0.012619436 0.60473758 10450008
-0.03474066 -0.01100558 0.60662484 10384982
-0.024609499 -0.012080729 0.60520101 10383709
-0.014657314 -0.011938334 0.60503632 10646623
-0.0050058435 -0.012024224 0.60574973 10844255
0.0056887497 -0.012852371 0.606125 10647650
0.015500878 -0.013525665 0.60623825 10712928
0.025137775 -0.013967514 0.60664213 10976613
0.035434362 -0.015378654 0.60666782 11043178
0.045305777 -0.016784489 0.60810697 10977381
0.055437572 -0.016410053 0.60820127 10779750
0.065249823 -0.015492141 0.60865068 10977642
0.075069681 -0.014806211 0.6102702 11108459
0.085219279 -0.014919579 0.61076093 11174754
0.094665416 -0.018012047 0.61141753 10713184
0.10515916 -0.017090201 0.61105311 10714460
0.11509601 -0.016998708 0.61141056 10910550
0.12521262 -0.016764879 0.61327988 10843478
0.13490871 -0.016105771 0.61308998 11039832
0.14540474 -0.016522825 0.6137132 10974039
0.15516481 -0.016822755 0.61534238 10776916
0.16487506 -0.016973615 0.6155715 10646356
0.17480816 -0.016417861 0.61606157 10778197
0.18483016 -0.017391443 0.61677295 10908240
0.19448248 -0.017939329 0.61722487 10579532
0.20507768 -0.017763078 0.61831403 10449227
0.2151804 -0.018545389 0.61802119 10383950
0.22509444 -0.01963526 0.61859208 10382671
0.23493072 -0.020293057 0.61896795 10646352
0.24468248 -0.021621227 0.61845475 10449487
0.25473332 -0.021638155 0.6196844 10382668
0.26471317 -0.022264719 0.61970264 10712139
0.27488127 -0.023533702 0.61931103 10776645
0.28477967 -0.02395457 0.61995745 10775876
0.29440409 -0.02428478 0.62065911 10644807
0.3044849 -0.026726246 0.62173396 10383173
0.31460696 -0.0275563 0.62148422 10709828
0.32472762 -0.02778542 0.6225881 10186310
0.33446723 -0.02823323 0.6229862 10317380
0.34485975 -0.028218567 0.62266386 10448709
0.35380995 -0.029178977 0.62362492 10448457
0.36453512 -0.030961573 0.62469268 6112834
0.37334904 -0.032363653 0.62610877 8353386
0.38439509 -0.031579971 0.62596732 13544838
-0.37137291 0.006017983 0.58175826 5653321
-0.36272493 0.0067797303 0.5813877 9399114
-0.35359013 0.0075141191 0.58206707 10253128
-0.34357703 0.0069985986 0.58175123 10448961
-0.33322486 0.0058075786 0.5827657 10317381
-0.32280967 0.0063793659 0.58302188 10319181
-0.31375846 0.006634295 0.58240455 10777931
-0.30348939 0.0066359639 0.58383673 10646094
-0.29393038 0.0053016543 0.58350301 10646350
-0.28340909 0.0036447048 0.58531582 10382154
-0.27353898 0.0048516989 0.58530635 10384721
-0.26367545 0.0038964152 0.58546019 10187085
-0.25355384 0.0026177764 0.58650249 10449993
-0.24348353 0.0017569065 0.58708978 10317133
-0.2343715 0.00023937225 0.58843559 9790028
-0.223107 0.00053465366 0.58870578 10251090
-0.21414916 0.00095421076 0.58891946 10382152
-0.20430711 -0.00029498339 0.58935887 10511949
-0.19457789 -0.0012454987 0.59015143 10448717
-0.18487421 -0.0018483996 0.59084803 9989197
-0.17249987 -0.0023703575 0.59145111 9267020
-0.16351855 -0.0025831461 0.59169722 10054735
-0.15426984 -0.0026909113 0.59233099 9988175
-0.14432572 -0.0033926964 0.59263265 10054734
-0.08228714 -0.0055946112 0.59517694 10057295
-0.077924699 -0.0063595176 0.59606063 10516818
-0.011633693 -0.0091556311 0.59929156 11963232
-0.008098173 -0.0093047619 0.59946388 11632481
0.029908676 -0.010907888 0.60131633 11307366
0.032560315 -0.011019707 0.60144556 11438182
0.076459698 -0.012871385 0.60358518 11108971
0.081173725 -0.013070166 0.6038149 11173740
0.10769013 -0.014188647 0.60510731 10315352
0.11476117 -0.014486909 0.60545194 10316119
0.13667993 -0.014975727 0.60601699 11171668
0.14650023 -0.014527202 0.60549879 10975061
0.15543735 -0.014895678 0.60592455 10778454
0.16587906 -0.01529789 0.60638928 10844756
0.17585951 -0.014527798 0.60583901 10582357
0.18494567 -0.01584214 0.60732383 10712915
0.19533204 -0.016638696 0.6081084 10778189
0.20535971 -0.017279088 0.60918784 10908494
0.215967 -0.018239319 0.60978812 10515281
0.22552028 -0.018443704 0.61002433 10647121
0.23547322 -0.018595457 0.61019969 10844753
0.24480547 -0.018810391 0.610448 10843213
0.254513 -0.019824445 0.61195928 10515020
0.26413691 -0.020787477 0.61273235 10778445
0.27120793 -0.021085739 0.61307698 10777416
0.2862339 -0.021719515 0.61380941 10841156
0.2941888 -0.022055089 0.61419708 10971975
-0.23649347 -0.0072278976 0.62457061 10120521
-0.20315692 -0.0086340308 0.62619537 9592898
-0.19955295 -0.0087860227 0.62637103 9723193
-0.17462566 -0.009837389 0.62758601 10119234
-0.16801842 -0.0101161 0.62790805 10119752
-0.127813 -0.012206614 0.63032365 9002821
-0.11576112 -0.01232034 0.63045496 9000516
-0.095939398 -0.013156414 0.63142103 8014925
-0.085485183 -0.014417171 0.63287777 8937805
-0.077183299 -0.014605343 0.63309532 8871508
-0.066145413 -0.014807761 0.63332927 8347217
-0.056748006 -0.015335739 0.63393933 9268824
-0.046014734 -0.016002774 0.6342932 9135705
-0.036308561 -0.017089069 0.63531029 9662300
-0.02658068 -0.018185616 0.6366592 10123103
-0.01741121 -0.019955993 0.63663852 10583652
-0.0081443377 -0.01871717 0.63608319 10911330
0.0085751563 -0.017564774 0.63651496 10978918
0.014203911 -0.019658506 0.63771158 11306604
0.023821784 -0.019715071 0.63819057 11503478
0.034107003 -0.021485329 0.63921124 11832702
0.042501554 -0.021706104 0.63900805 11571583
0.053566456 -0.020054519 0.6393919 11703929
0.063546389 -0.020919561 0.64039141 11769210
0.073314615 -0.021627963 0.64090431 11768181
0.083361946 -0.022587299 0.64104509 12094576
0.092882425 -0.022379339 0.64175069 11699569
0.10071815 -0.022043407 0.64169002 12160109
0.1356144 -0.022923231 0.64270675 11698776
0.14011933 -0.023113251 0.64292628 12093275
0.22301018 -0.02660954 0.64696634 9859408
0.22841612 -0.026837528 0.64722979 10775887
0.25634673 -0.028015673 0.6485911 10119498
0.28551471 -0.029753447 0.65059906 11039046
0.29251441 -0.030109465 0.65024638 10842949
0.30479664 -0.030296028 0.65122616 10383430
0.3136948 -0.031527638 0.65264916 10251330
0.32194462 -0.032558739 0.6538406 10251070
0.33240411 -0.03258425 0.65261966 10056007
0.34284776 -0.034141481 0.65478784 10120518
0.35243258 -0.034465909 0.65517116 10252354
0.36288404 -0.034531116 0.65492374 5653562
0.37162888 -0.038965821 0.65382183 9338974
-0.37508696 0.0014469028 0.61214513 4867401
-0.36592361 0.0029825568 0.61223286 9532237
-0.35466412 0.0026749969 0.61312759 10253387
-0.34496474 0.0020914674 0.61351532 10319436
-0.33555895 0.0019829869 0.61392719 11172938
-0.32538992 0.0017134547 0.61423862 11239500
-0.31591889 0.0015986562 0.61437136 11044171
-0.30497706 9.2387199e-06 0.61595321 10516813
-0.29629156 -4.1306019e-05 0.61556095 10912845
-0.28601924 0.00025528669 0.6159237 11700050
-0.27551138 -0.0015471578 0.61657357 10516299
-0.26550537 -0.0017188787 0.61820483 10515017
-0.25510183 -0.0031186342 0.61918986 9858123
-0.24485341 -0.0033061504 0.61941367 10252619
-0.23523496 -0.0037149787 0.62000185 10449225
-0.22599758 -0.003018856 0.61970687 10778703
-0.21567342 -0.0029391646 0.61961478 10843471
-0.20527895 -0.006095171 0.62032753 10186573
-0.19574581 -0.0068542361 0.62142205 10120005
-0.18555267 -0.0074884892 0.62081593 10056267
-0.17546296 -0.0075193644 0.62230933 10056009
-0.16553274 -0.0081027746 0.62264735 10187341
-0.15547353 -0.0077852011 0.62283045 10319439
-0.1456418 -0.0085960627 0.62271291 10714960
-0.13544299 -0.0092570186 0.62356502 10581832
-0.125563 -0.010985136 0.62362224 10580560
-0.11571015 -0.011068881 0.62385851 10712146
-0.1056402 -0.01161772 0.62448549 10580811
-0.095917843 -0.01253593 0.62453878 10514255
-0.085787617 -0.012986958 0.62564152 10646092
-0.075972468 -0.01367861 0.62514794 10514769
-0.065570407 -0.013969481 0.62604398 10580304
-0.055776309 -0.013446987 0.62735546 11040338
-0.045833137 -0.014851809 0.62696147 10910037
-0.035922151 -0.016135037 0.62667209 10713434
-0.026406871 -0.01642108 0.62749803 10975581
-0.016110778 -0.018442035 0.62667906 11042146
-0.0063478998 -0.017958343 0.62759709 11042658
0.00470027 -0.014412642 0.63010722 11042406
0.01414172 -0.018701375 0.62912482 11175020
0.024235941 -0.019179165 0.62931693 11176306
0.033933192 -0.019527912 0.62967563 11308152
0.043765206 -0.020319402 0.629816 11374459
0.053885289 -0.017089188 0.63358134 11571070
0.063608639 -0.019367993 0.63238376 11570808
0.073995873 -0.020349443 0.63214624 11045744
0.083828665 -0.020385146 0.63349134 10979694
0.094040565 -0.020006478 0.63427734 10649704
0.10397001 -0.019765377 0.63570756 10976868
0.11331759 -0.01895982 0.63583457 11041118
0.12347903 -0.018753588 0.63735956 11040602
0.13411711 -0.019532144 0.63832968 11237720
0.1439307 -0.020685136 0.63772845 10450265
0.15373302 -0.020459831 0.63844949 10712401
0.16369192 -0.021084428 0.63828957 10712915
0.17365699 -0.021224678 0.63902467 10777941
0.1835857 -0.021348476 0.63919801 10908240
0.19387688 -0.021779835 0.63960254 10580302
0.20339552 -0.021943212 0.63974053 10580305
0.21395335 -0.022313178 0.64112848 10514256
0.22333065 -0.023756027 0.64208192 10514513
0.23224603 -0.02325666 0.6426335 10645323
0.24448118 -0.023328722 0.64290559 10579782
0.25307348 -0.025371313 0.6433959 10382411
0.26350084 -0.026315391 0.64362258 10448718
0.27373061 -0.025882006 0.64453852 10515271
0.28393787 -0.026818097 0.64460927 10710601
0.29355878 -0.028813541 0.64390957 10514758
0.30380234 -0.027959704 0.6454699 10186567
0.31316146 -0.029552162 0.64485407 10185539
0.32321754 -0.030741394 0.64466023 10316351
0.3326627 -0.032421231 0.64416045 10382406
0.34272096 -0.03200376 0.64495844 10512969
0.35304758 -0.032294631 0.64568365 10119487
0.36335382 -0.033481538 0.64583665 5653310
0.37299365 -0.035575628 0.64536774 9011306
0.37888211 -0.033834994 0.64309031 13084793
-0.37391913 0.0018933415 0.60409808 4998472
-0.36438847 0.0036650896 0.60391301 9005133
-0.35425794 0.0038542747 0.60353988 10252362
-0.34392935 0.003664732 0.60447037 10449739
-0.33441752 0.0042979717 0.60587895 10448716
-0.32491964 0.0029349327 0.60608256 10580307
-0.31484962 0.0018746257 0.6059534 10317640
-0.30469108 0.0018234253 0.60715002 10186314
-0.29509819 0.0020022988 0.60719794 10383178
-0.28513479 0.0014346242 0.60763288 10710094
-0.27478108 0.00073093176 0.60799515 10646347
-0.26448268 0.00033694506 0.60850298 10448206
-0.25460628 -4.4107437e-05 0.60872412 10512964
-0.2446423 -0.00039935112 0.60951954 10645321
-0.2346715 -0.00059968233 0.60979593 10644813
-0.22493893 -0.0022472143 0.61094832 10251600
-0.21518114 -0.0032970309 0.61132443 10121294
-0.20471583 -0.0046603084 0.61143827 10448716
-0.19512217 -0.0054466724 0.6109243 10251596
-0.18512046 -0.0063787699 0.61272281 10186572
-0.17506163 -0.0057985783 0.61270827 10186571
-0.16510874 -0.006529808 0.61300606 10187084
-0.15550199 -0.0076938868 0.61441213 10187341
-0.1447628 -0.0078422427 0.61503303 10317645
-0.13524416 -0.0072558522 0.6144349 10185550
-0.12738919 -0.0085835457 0.61467606 10186320
-0.11450502 -0.010256529 0.61584538 10382162
-0.10694616 -0.011581898 0.61737651 10251342
-0.097118929 -0.011996388 0.61785549 9988944
-0.073593132 -0.012988687 0.6190021 10317134
-0.063863397 -0.012242794 0.61897373 10251858
-0.055415746 -0.011570454 0.61927366 10448466
-0.044910546 -0.013130069 0.61987096 10645332
-0.035425372 -0.013861716 0.62031651 10515287
-0.027117962 -0.014753282 0.62104118 10253915
-0.01308322 -0.014953911 0.62127298 10711904
-0.0059361472 -0.015255213 0.62162143 10845539
0.0043743332 -0.015334845 0.62254685 10977896
0.028848255 -0.017309606 0.62399501 11372396
0.034208562 -0.017535686 0.62425625 11307120
0.045472581 -0.01767534 0.62441766 11569262
0.055067457 -0.016616762 0.62383825 12029036
0.06433145 -0.017053187 0.62459779 11766126
0.074468434 -0.018646657 0.62554026 11307115
0.084602669 -0.018246651 0.62526906 11241064
0.093876451 -0.01841867 0.62573516 11306596
0.10432883 -0.018610299 0.62664419 11436642
0.11416069 -0.017792583 0.62666929 11240544
0.12439087 -0.017194331 0.62663513 11240027
0.13412514 -0.0170753 0.62743503 11370839
0.14450553 -0.018648326 0.6267733 11108184
0.15415661 -0.019146323 0.62759101 11173723
0.16448601 -0.019809365 0.62875146 11632728
0.17450632 -0.019146979 0.62876987 10976086
0.18395454 -0.020966768 0.6298666 11108180
0.1945332 -0.020921588 0.6290679 10713424
0.20412312 -0.021142423 0.6296975 10975312
0.21408921 -0.021125317 0.63056916 10844493
0.22412649 -0.021399081 0.63138252 10777675
0.23355268 -0.021620989 0.63349754 11172425
0.24492115 -0.021712065 0.63427794 10975560
0.25413153 -0.02350235 0.63327926 10646858
0.26408276 -0.024866521 0.63329339 10711879
0.27382907 -0.026268721 0.63475519 11040331
0.28376371 -0.026868463 0.63522047 10778447
0.29437587 -0.027026117 0.63522303 10778185
0.30349231 -0.027245283 0.63678575 10712907
0.31395152 -0.028623044 0.63732278 10516036
0.32372266 -0.029160142 0.63768864 10779975
0.33364397 -0.029226303 0.63776523 11108171
0.34355476 -0.029703081 0.63831609 11501898
0.35282439 -0.03012079 0.63879865 11240258
0.36148253 -0.030606151 0.6393593 7360580
-0.34032181 0.0053064227 0.59786189 10782027
-0.33412796 0.005527854 0.59798801 10912845
-0.3010129 0.0036484003 0.59977776 11041101
-0.29522768 0.0043002367 0.60004324 10911311
-0.2840386 0.0029324293 0.60060507 11173701
-0.27599815 0.0025932789 0.60099697 11437136
0.13674536 -0.014816046 0.62111366 10710874
0.14299905 -0.015079796 0.62141848 10908764
0.17516088 -0.016436398 0.62298602 10449239
0.19838887 -0.01741612 0.62411809 9397840
0.20106903 -0.01752919 0.62424874 9591888
0.21417199 -0.018081844 0.62488735 10120267
0.36916327 -0.044501603 0.68292224 10594442
-0.12555726 -0.017651618 0.65189672 9265741
-0.11463137 -0.018112481 0.65242928 9264972
-0.092779569 -0.019034207 0.6534943 9132614
-0.091017276 -0.019706786 0.65427154 9001800
-0.066646948 -0.02058512 0.65528649 9133133
-0.05658948 -0.021213293 0.65601236 8938833
-0.047230102 -0.022655845 0.6576792 9793109
-0.038960632 -0.022141874 0.65708524 9857874
-0.027224179 -0.021799266 0.65668941 10250836
-0.017943092 -0.023463249 0.65825957 10121052
0.011016469 -0.023412287 0.65855318 10780530
0.044220064 -0.025111914 0.66051716 11703940
0.050264139 -0.02540952 0.66086119 11835521
0.31512064 -0.036239207 0.67337495 10448965
0.32058361 -0.036469698 0.67364115 10318916
0.33242002 -0.036968887 0.67421806 10054984
0.3419508 -0.037670016 0.67502832 10057027
0.35154033 -0.037775397 0.67514998 9795126
0.36390546 -0.039094627 0.67667449 4930107
0.37057266 -0.04009378 0.67782903 8287845
-0.37629128 -0.0013492703 0.6330592 5195338
-0.36698496 -0.0011171699 0.63279104 9335630
-0.35611787 -0.00074720383 0.63236344 10120774
-0.34572908 -0.0013563037 0.63306737 10188359
-0.33711493 -0.0027452707 0.63467234 10056266
-0.3270115 -0.0022739768 0.63412774 10777413
-0.28515828 -0.0043385029 0.63651329 10188107
-0.27599463 -0.0041267276 0.63626856 10058575
-0.26501894 -0.0055100918 0.63786715 10254668
-0.2562032 -0.0059739947 0.63840318 10319433
-0.24726468 -0.006099999 0.63854873 10517074
-0.23684348 -0.0057780743 0.6381768 10254921
-0.22689331 -0.0068625808 0.63942987 10846023
-0.2164522 -0.0071820617 0.63979912 11109191
-0.20646787 -0.0085810423 0.64035767 10780475
-0.19690669 -0.009108007 0.64094585 10912071
-0.1868985 -0.0092309117 0.64216655 10515787
-0.17649627 -0.010226727 0.64211082 10646347
-0.16691516 -0.010349631 0.64288616 10844232
-0.15664186 -0.011453509 0.64353871 10252620
-0.14695905 -0.011481941 0.64345777 10188621
-0.13622795 -0.013394296 0.64493978 10122318
-0.127033 -0.01497978 0.64657599 9792585
-0.11676919 -0.014935613 0.64646631 10121295
-0.1067216 -0.015673041 0.64666325 10121034
-0.096544079 -0.016413569 0.64764851 9925452
-0.08719372 -0.015816212 0.64824772 9990989
-0.076181866 -0.016120911 0.64825249 9925965
-0.066801026 -0.017947972 0.64930516 10055761
-0.056767229 -0.018820345 0.64937586 10121552
-0.046686772 -0.018968225 0.64956927 10253397
-0.036937091 -0.020056486 0.65014368 10582102
-0.026967801 -0.020863235 0.64990681 10778970
-0.016965738 -0.020873189 0.65114009 11107939
-0.0073457705 -0.01851964 0.65115333 11373667
0.002328113 -0.019450307 0.6525799 11176554
0.012057571 -0.019747853 0.65376878 11702384
0.021808293 -0.020107925 0.65314049 12031094
0.032308459 -0.021375835 0.65358943 12295294
0.042734526 -0.021914303 0.65425497 12296066
0.052393876 -0.022871256 0.65497023 12361094
0.062133264 -0.022130013 0.65456533 12032645
0.072626337 -0.022100985 0.65474582 11965565
0.082254454 -0.021721482 0.65516692 11244145
0.092423007 -0.022793889 0.65631056 11570539
0.10243234 -0.021780074 0.65525663 11044712
0.11344127 -0.021084785 0.65586376 10780767
0.12303468 -0.023342609 0.65827352 11239257
0.1312556 -0.024136186 0.6588608 11107670
0.14220496 -0.021965563 0.65688169 10450262
0.15325813 -0.022681117 0.65770847 10383185
0.162644 -0.024150014 0.65834785 10775376
0.17311512 -0.023976028 0.65885216 10447436
0.18310298 -0.024004042 0.65923715 10316105
0.19384851 -0.024970114 0.66035342 10251090
0.20198952 -0.025375664 0.66082203 10186570
0.21382049 -0.025085986 0.66048735 10251081
0.2229199 -0.026862144 0.66112906 9858637
0.23300102 -0.027764857 0.66227293 10054472
0.24265876 -0.029031813 0.66351855 10120004
0.25177962 -0.02972275 0.66345316 9923911
0.26177326 -0.029171526 0.66444421 10054473
0.2723901 -0.030245602 0.663966 10120520
0.28161067 -0.031564176 0.66491652 9989957
0.29245684 -0.031132281 0.66594571 10185539
0.30211803 -0.03294915 0.66675186 10316866
0.31225121 -0.033958077 0.66756058 10447937
0.32179782 -0.03462404 0.6680702 10250304
0.3315393 -0.035550952 0.66788197 10119237
0.34142518 -0.036181867 0.66834199 9987906
0.35154751 -0.036312521 0.66893154 9988157
0.36168009 -0.036812246 0.66945231 5587264
0.37204605 -0.03724587 0.67022634 8812889
0.37802213 -0.038122952 0.66842026 12756343
-0.37439349 0.0013118982 0.62588221 5458509
-0.36574927 0.0008058548 0.62524855 9728588
-0.35606942 0.001226306 0.62692142 10383436
-0.34593046 0.00059705973 0.62687224 10386254
-0.33565855 -0.00052523613 0.62710071 10516810
-0.32574365 1.090765e-05 0.62837642 10907462
-0.31590292 -1.6510487e-05 0.62902892 10777159
-0.30590528 -0.00015491247 0.62894118 10647116
-0.29523998 -0.00075763464 0.62931919 10713163
-0.28546831 -0.0020245314 0.63021713 10646605
-0.27577063 -0.002065599 0.63066089 10385743
-0.26619235 -0.0033447742 0.63052571 10385482
-0.25616077 -0.0048705339 0.62990856 10579787
-0.24610679 -0.0050151944 0.63055962 10513999
-0.23581751 -0.0057688951 0.63112563 10252101
-0.22606769 -0.0050051212 0.63213289 10448452
-0.21625775 -0.004955411 0.6335693 9922890
-0.20607041 -0.0073032975 0.63236213 9989705
-0.19537498 -0.0079648495 0.63273537 9595204
-0.18588087 -0.0070366859 0.63387096 9661769
-0.17613921 -0.0093762875 0.63363087 10317642
-0.16590133 -0.0092616677 0.63415003 10447946
-0.1563475 -0.0089762211 0.63505423 10121545
-0.14634466 -0.0095459223 0.63504773 9661258
-0.13614525 -0.011704803 0.63492864 9924427
-0.12626311 -0.012454867 0.63602853 10056014
-0.11625335 -0.012080431 0.63592327 9727307
-0.10621092 -0.012323916 0.63626581 9660234
-0.096783839 -0.013992846 0.63773614 10253391
-0.086807765 -0.014979482 0.63864684 10383697
-0.076379389 -0.015580952 0.63888353 10056531
-0.066896036 -0.015247643 0.63994992 10122068
-0.056687087 -0.016709208 0.63989258 10581849
-0.047280811 -0.016634285 0.64048904 10647897
-0.037257563 -0.018194258 0.6414445 10712924
-0.027449701 -0.01943475 0.64249593 10973788
-0.015607635 -0.019828439 0.64275986 11107429
-0.0064191506 -0.018468022 0.64280766 11174499
0.0038825686 -0.017821848 0.6418128 11042920
0.013208213 -0.020061076 0.64428931 11437169
0.023989296 -0.020416975 0.64429945 11570299
0.032322828 -0.02162528 0.64517999 11637126
0.044585478 -0.021145999 0.64567405 11638407
0.053220149 -0.021093786 0.64557934 11442050
0.063701823 -0.021454811 0.64635831 11572611
0.072985254 -0.02251339 0.64725411 11310462
0.083470799 -0.023081601 0.64716834 11242866
0.093404874 -0.023015141 0.64844793 10912878
0.10334442 -0.021631956 0.64667213 11042406
0.11313311 -0.019062519 0.64943367 10911071
0.1233093 -0.020741642 0.64835346 11041884
0.1328062 -0.022215247 0.6488651 10712921
0.14322111 -0.022192657 0.64903295 10450263
0.15311447 -0.02143091 0.65077388 10647378
0.1630584 -0.022180021 0.65041614 10777429
0.17280729 -0.023327053 0.65075731 10711633
0.18250023 -0.023513079 0.65097016 10711375
0.19312325 -0.021454394 0.6541304 10449230
0.20318735 -0.022371948 0.65372854 10318671
0.21306175 -0.024324 0.6530866 10515533
0.22286765 -0.026343942 0.65258825 10776140
0.23295856 -0.026897848 0.65256286 10711116
0.24278527 -0.027175486 0.65316665 10777417
0.25257483 -0.028079033 0.65363079 10776389
0.26294419 -0.027810454 0.65434915 10710087
0.27297217 -0.028039217 0.65483618 10579270
0.28220877 -0.029577374 0.65606266 10316870
0.29318833 -0.030665517 0.65595943 10185542
0.30229318 -0.031602323 0.65642446 10185798
0.31188092 -0.033225298 0.65766722 9989187
0.32338136 -0.034462035 0.659096 10053954
0.33235446 -0.033968449 0.658526 9988676
0.34134203 -0.035390973 0.66016942 10380355
0.35177544 -0.035831034 0.66067797 10250557
0.36181012 -0.035665989 0.66114211 5914941
0.37097844 -0.035999 0.66316456 7103812
0.37757832 -0.0353719 0.66473204 13021303
-0.37300825 0.001437664 0.61761355 5457995
-0.36492392 0.0025495291 0.61773932 9924174
-0.35569787 0.0017954111 0.61818248 10185803
-0.34555832 0.0014896989 0.61869943 9989965
-0.33506709 0.0013350844 0.61916465 9660749
-0.32506612 0.001098156 0.61983955 9790799
-0.31516591 0.00096362829 0.61960912 9660491
-0.30624965 -0.0008919239 0.62087846 8938057
-0.29529631 1.0609627e-05 0.62126815 9200459
-0.28596371 0.00056606531 0.62201655 9529683
-0.2761668 -0.0017266273 0.62218678 8546384
-0.26692918 -0.0022537708 0.62245208 8807241
-0.25132218 -0.0039322376 0.6238187 9202256
-0.24710871 -0.0041099787 0.62402403 9859663
-0.23507021 -0.0046177506 0.62461078 9659721
-0.22483478 -0.0034165978 0.62475079 10055501
-0.21620658 -0.0035300851 0.62478638 10054735
-0.20888646 -0.0057221651 0.62588698 10052683
-0.18902291 -0.0065600276 0.62685508 9920827
-0.16103338 -0.0077406168 0.62821925 10444095
-0.15651892 -0.007930994 0.62843931 9918783
-0.14568427 -0.0083880424 0.62896734 9787718
-0.1381214 -0.0083115101 0.62887895 10381382
-0.12130628 -0.0094162822 0.6301555 9853252
-0.1122774 -0.0097970963 0.63059556 10048567
-0.10866585 -0.0099494457 0.63077164 9917241
0.0037453251 -0.014163613 0.63564092 11241062
0.11344468 -0.019317985 0.64159703 11765854
0.12247356 -0.019698799 0.64203709 11570264
0.14324 -0.020574689 0.64304924 11040854
0.1537737 -0.021018982 0.64356261 11170900
0.16310354 -0.021412551 0.64401734 11039571
0.17303532 -0.021831512 0.64450139 10908753
0.18397309 -0.021717548 0.64494276 10908239
0.1932694 -0.021527171 0.64506662 10776908
0.20346683 -0.021967828 0.64590913 10646353
0.21241285 -0.022965074 0.6458112 10449492
0.23635389 -0.023315668 0.64621633 10579529
0.24177122 -0.023544192 0.64648032 10317129
0.27969253 -0.025143623 0.64832866 10711365
-0.085941359 -0.024627626 0.67676705 10252368
-0.080415688 -0.02486068 0.6770364 10581329
-0.068443388 -0.025365651 0.67761993 10451789
0.36894664 -0.044419706 0.69963712 9995617
-0.36519668 -0.005586803 0.65476519 9398344
-0.36151287 -0.0057421923 0.65494472 10055751
-0.35236275 -0.0067332983 0.65608996 9859142
-0.22613378 -0.011452436 0.66154295 9463625
-0.21830733 -0.012320518 0.66254598 9724997
-0.20707405 -0.012429297 0.66267169 10118729
-0.19734378 -0.014100075 0.66394728 9658695
-0.18952203 -0.014579535 0.66515619 9200454
-0.17785229 -0.01512289 0.66578418 9004357
-0.16830811 -0.016195834 0.66682458 9201988
-0.15774916 -0.016525388 0.66597199 9463113
-0.14912336 -0.017142117 0.66607964 9855818
-0.1370337 -0.015694797 0.66644502 9332554
-0.12750068 -0.016382992 0.66724014 9726029
-0.11836629 -0.01665324 0.66689748 9792079
-0.10737636 -0.018475175 0.66838425 9856845
-0.098240986 -0.018057287 0.66917479 9987661
-0.08801809 -0.021266699 0.67065644 10053964
-0.07798513 -0.021283805 0.67126566 10448208
-0.068856768 -0.022049248 0.67180085 10645326
-0.058742091 -0.022439778 0.67232877 10383186
-0.048378132 -0.022531152 0.67167002 10318160
-0.038469892 -0.023161232 0.67241043 10319448
-0.028315343 -0.023514092 0.67272949 10583138
-0.018820975 -0.023689389 0.67229426 10911583
-0.0077561475 -0.022179663 0.67363256 11503466
0.00041894862 -0.021008313 0.67258489 12623732
0.012311985 -0.024848819 0.67463064 11572092
0.020891808 -0.026670516 0.67350143 12032387
0.031140616 -0.024903119 0.67428344 12887441
0.041604105 -0.023283422 0.67521375 13218196
0.052471824 -0.024933219 0.67666161 12757904
0.06194067 -0.025535285 0.67628747 12756875
0.07180503 -0.026177168 0.67655164 12493701
0.081076823 -0.02686137 0.67781985 12031868
0.091053277 -0.026585817 0.67694575 11964525
0.10076249 -0.025644243 0.67794168 11897961
0.11179406 -0.026311278 0.67871243 11634782
0.12106289 -0.026097 0.67846495 11043927
0.13113394 -0.027127028 0.67965502 10255447
0.13763992 -0.026796222 0.67927295 10124627
0.15237506 -0.027417719 0.67999107 10121044
0.16158451 -0.027806163 0.68043995 9726031
0.1671102 -0.028039277 0.68070924 9330756
0.22236696 -0.030369937 0.68340242 8935488
0.22973454 -0.030680716 0.68376154 8673348
0.2420138 -0.03119868 0.68435997 8541754
0.25135773 -0.032457411 0.68581432 9725504
0.26114336 -0.033367217 0.68686563 9858114
0.270843 -0.03347379 0.68698877 9857610
0.28202865 -0.034678876 0.68641645 9527622
0.29086253 -0.035391092 0.68785602 9792068
0.30174839 -0.035075605 0.68813437 9724740
0.31050807 -0.036587477 0.68875301 9791301
0.32081026 -0.037929237 0.68968105 9857604
0.33060572 -0.039294958 0.68930697 9989184
0.34095106 -0.038651645 0.6908558 9595199
0.35099998 -0.039675176 0.68977845 9068098
0.36123762 -0.040364802 0.69140369 5521212
0.36935169 -0.041722596 0.69270009 8681056
-0.37533417 -0.0027582645 0.64721781 6310989
-0.36709371 -0.0028739572 0.64933795 9860427
-0.35755712 -0.0022367239 0.6500966 10451783
-0.34772098 -0.0028994679 0.65097207 10253385
-0.33797824 -0.0031955242 0.65085578 10517323
-0.32745525 -0.0019917488 0.6506108 10648906
-0.31637001 -0.0032910109 0.65070146 10319185
