# .PCD v0.7 - Point Cloud Data file format
VERSION 0.7
FIELDS x y z rgba
SIZE 4 4 4 4
TYPE F F F U
COUNT 1 1 1 1
WIDTH 1055
HEIGHT 1
VIEWPOINT 0 0 0 1 0 0 0
POINTS 1055
DATA ascii
0.26542577 -0.0048624873 0.30601916 9930868
0.27525449 -0.0054755807 0.30681264 10389872
0.28537983 -0.0058953762 0.30698788 10586735
0.29504642 -0.0064267516 0.3077687 10257772
0.30524015 -0.0062984824 0.30794063 10060140
0.31496057 -0.0076675415 0.3075071 10059883
0.32569164 -0.006621778 0.30825591 10322543
0.334786 -0.0063897967 0.30825913 10059624
0.34512192 -0.0060218573 0.30846673 10125674
0.35387862 -0.0048937201 0.30881557 10718059
0.15900566 -0.0019824505 0.29576761 9864803
0.16456918 -0.0021533966 0.29594213 9930084
0.19034378 -0.0032683611 0.29708058 8946803
0.19622658 -0.0032367706 0.29704827 9603179
0.20312849 -0.0037059188 0.29752728 8880757
0.21591321 -0.0041434169 0.29797402 10522483
0.22692835 -0.0036293864 0.29796889 10850669
0.23555325 -0.0035283566 0.29789567 10915693
0.24513802 -0.0035723448 0.29948708 9600104
0.25583845 -0.0043062568 0.29930124 10191452
0.26577556 -0.0043262243 0.29921696 11377268
0.27556348 -0.0042119026 0.29927602 11838842
0.28460431 -0.0054570436 0.29999211 11706736
0.29694945 -0.0061549544 0.30057746 11970690
0.30533794 -0.0055927634 0.30095091 12168057
0.31590834 -0.005787909 0.300623 12363136
0.32579094 -0.0057481527 0.30075592 11838090
0.33577365 -0.0053386688 0.30075347 11245438
0.34507725 -0.0048784614 0.30180281 11507833
0.35354385 -0.003855288 0.30263731 10916980
-0.32156301 -0.0080659389 0.32770377 9799524
-0.32034174 -0.0085467696 0.32819468 9865823
-0.36630404 -0.0025572181 0.31957832 7894118
-0.35581204 -0.0026009679 0.31962293 10062697
-0.34477273 -0.0025481582 0.32079959 9603698
-0.33618942 -0.003010869 0.32074443 9735292
-0.32540715 -0.0049696565 0.32190827 9667692
-0.3160769 -0.0062468052 0.32149655 9537902
-0.30591327 -0.0057313442 0.32172272 9603188
-0.29561719 -0.0067628026 0.32176843 9799535
-0.28615686 -0.0062164068 0.32222962 9734254
-0.27578843 -0.0066257715 0.32176748 10063982
-0.26620764 -0.0059772134 0.32363358 9932404
-0.25647137 -0.0068435073 0.32407391 9865590
-0.24584252 -0.0054543018 0.32354841 10065024
-0.23753518 -0.0048115849 0.32354727 10129265
-0.21967439 -0.0045285821 0.32409206 9536887
-0.36462256 -0.00085943937 0.31310889 8550755
-0.35566914 -0.0016422868 0.31278324 9863013
-0.34605545 -0.0017691255 0.31346568 9601124
-0.33610386 -0.0019052029 0.31494838 9208180
-0.32620382 -0.0029764771 0.31412563 9075293
-0.31600183 -0.005158186 0.31372485 9076076
-0.30568728 -0.0058566332 0.31528512 8879479
-0.29524171 -0.0065517426 0.31472421 9208428
-0.28612548 -0.0065854788 0.31564346 9273197
-0.27516031 -0.0064402223 0.31554705 8945263
-0.26527339 -0.0061690211 0.31733507 9470066
-0.25522062 -0.005456388 0.31669319 9799287
-0.24592623 -0.0054651499 0.3172164 9799795
-0.235401 -0.0050085783 0.31856149 9734006
-0.22563754 -0.0040235519 0.31833631 10129267
-0.21546914 -0.0040900707 0.31801084 10653816
-0.20583805 -0.0032861233 0.31756052 10458232
-0.19560781 -0.003354609 0.31869432 10654329
-0.1862992 -0.0025889277 0.31870177 10786937
-0.17591241 -0.0011669397 0.31875402 11446160
-0.16560923 -0.0016185045 0.31993639 11510659
-0.15627441 -0.001188457 0.31999341 11575944
-0.14583816 -0.0016345978 0.32000566 11707538
-0.1365376 -0.0022150278 0.32036015 11248015
-0.12610692 -0.0010993481 0.31997818 11311498
-0.11590219 -0.0013229847 0.32067609 11245438
-0.10542011 -0.0016095638 0.32111165 10654089
-0.10026007 -0.0015910268 0.32109272 10918030
-0.073971495 -0.0024906397 0.32201129 10917776
-0.05644577 -0.0030904412 0.32262367 11110262
-0.20285761 -0.0034940243 0.31188831 10326145
-0.19479583 -0.0027112961 0.31183553 10720637
-0.18512335 -0.0023825169 0.31207535 10325891
-0.17511828 -0.0016868711 0.31345645 10589065
-0.16543496 -0.0016773939 0.31349942 10129014
-0.15549915 -0.0023456216 0.31381494 10063237
-0.14515667 -0.0022212863 0.31353295 10259587
-0.13552852 -0.0014506578 0.31393373 10194567
-0.12562926 -0.001727283 0.31423894 10129021
-0.11531401 -0.0015155077 0.3142747 10062198
-0.10540214 -0.0010561943 0.31457764 10061952
-0.095516808 -0.0010767579 0.31489891 9799552
-0.085425779 -0.0011830926 0.315025 10193782
-0.075361654 -0.00075864792 0.31574881 10390649
-0.065366261 -0.0011078119 0.31582278 10324090
-0.055389907 -0.0015157461 0.31576949 10128245
-0.045132712 -0.00090700388 0.31651551 9996406
-0.035302971 -0.0015790462 0.31708273 10193020
-0.025301727 -0.0020046234 0.31713712 9996154
-0.015338852 -0.0018066764 0.3170917 10063749
-0.0056741666 -0.0018910766 0.31784883 10325874
0.0045020659 -0.00092101097 0.31842992 10325889
0.014568533 -0.0014893413 0.31858197 10390903
0.024198284 -0.0016089082 0.31821305 10719347
0.03459122 -0.0019516349 0.31959507 10194293
0.044569254 -0.0018128157 0.3202762 10390383
0.054637928 -0.0023134947 0.32008874 10588264
0.064880542 -0.0024818182 0.32074133 10391405
0.074283823 -0.0034083128 0.32059425 10391404
0.084586017 -0.0031831861 0.32115078 10457447
0.094703071 -0.0035001636 0.32148281 10786420
0.10472168 -0.0040966272 0.32226059 10919285
0.11427435 -0.0031607747 0.32174259 11447687
0.1227102 -0.0027936697 0.32200298 11907202
0.13056776 -0.0024662018 0.32198632 10464154
0.14725891 -0.0030373931 0.32256955 10725012
0.15372674 -0.0032587647 0.32279554 10856063
0.31834331 -0.0088922977 0.32854745 11111265
0.3321135 -0.0093635321 0.32902861 12036225
-0.071255259 -0.00034409761 0.30910099 11839106
-0.068763487 -0.00043565035 0.30905151 11840644
-0.056478065 -0.00081855059 0.31029993 11117444
-0.042791195 -0.0013182163 0.31009558 10787195
-0.03592664 -0.0015844703 0.30965278 11244419
-0.02568331 -0.0017992854 0.31049728 10589570
-0.013166443 -0.0021095872 0.31057876 9537930
-0.0049406542 -0.002594769 0.31182769 10726040
0.0057809036 -0.0012900829 0.31216577 10062712
0.014980112 -0.0013568997 0.31252387 9602414
0.024724737 -0.0022978783 0.31247389 9404282
0.034834202 -0.0010840893 0.31353384 9930858
0.044863302 -0.0015586615 0.31346938 10127739
0.054650471 -0.0012056828 0.31394061 9405297
0.06472709 -0.0018326044 0.31370834 9930873
0.074624605 -0.0025838614 0.31340635 9931122
0.085047655 -0.0022542477 0.31387472 9996922
0.094489157 -0.0031097531 0.31424716 9732971
0.10503325 -0.0031864047 0.31450436 10060641
0.11482824 -0.0026129484 0.31441888 10258799
0.12508349 -0.0019744039 0.31526437 10062194
0.13490181 -0.0015283823 0.31585062 9799789
0.14515629 -0.0023329854 0.31528792 10194043
0.1548678 -0.0028788447 0.31591138 10259308
0.16486906 -0.0033143163 0.31641075 10325111
0.17496851 -0.0031983256 0.31640488 10259311
0.1846537 -0.0038711429 0.31633833 10521449
0.19470674 -0.0035299659 0.31671539 10588273
0.20493287 -0.0034772754 0.31725264 10588531
0.21492673 -0.0035192966 0.3180064 10916213
0.22468178 -0.0042397976 0.31812078 10653811
0.23478532 -0.0038338304 0.31875119 10850680
0.24477386 -0.003359139 0.31898218 10849141
0.2545518 -0.0034965873 0.32012728 11179120
0.26429504 -0.0041031241 0.31986392 11178858
0.27460167 -0.0048483014 0.31968442 11178590
0.2843526 -0.0045723915 0.32054996 11114087
0.29490814 -0.0052337646 0.32163408 11180154
0.30464211 -0.00639534 0.32081723 10981757
0.31513625 -0.0067522526 0.32250589 10783600
0.32449773 -0.0074222684 0.32279876 11047282
0.33464462 -0.0071582198 0.32375026 11178866
0.34402168 -0.0069491267 0.32293561 10785143
0.35444981 -0.0053281784 0.32382417 11575410
0.36168393 -0.0044796467 0.32378229 8220278
0.14943148 -0.00098901987 0.30904481 10585965
0.15707377 -0.0012230277 0.30981976 10784371
0.16501258 -0.0013543963 0.31001964 10457206
0.17252508 -0.0016347766 0.30970415 10852471
0.19544248 -0.0023735166 0.3109943 11377265
0.20493257 -0.0025874972 0.31113401 11509111
0.21459959 -0.0030164123 0.31168649 11708280
0.227229 -0.003275156 0.31195068 11376766
0.23518826 -0.0025775433 0.31209582 11510655
0.24514173 -0.0030609965 0.31238523 11574658
0.25533715 -0.0029233098 0.31304026 11903606
0.26456785 -0.0038507581 0.31355491 11115140
0.2753945 -0.0052630901 0.31412327 11115144
0.28454486 -0.005230546 0.31424886 10917766
0.29435161 -0.0055654645 0.3151466 10718578
0.30486044 -0.0062125921 0.31518209 10915719
0.3153241 -0.0062505603 0.31539482 11243646
0.32474551 -0.0063611269 0.31548259 11310968
0.33584145 -0.0054969192 0.31581184 10850164
0.34531456 -0.0048971772 0.31556118 10126701
0.35522839 -0.003975749 0.316567 10258799
0.36086434 -0.003518641 0.31877342 10587509
-0.37185749 -0.0014067888 0.33376706 5329773
-0.36600667 -0.0020916462 0.33466139 8486512
-0.35647708 -0.0027673244 0.33465016 9800818
-0.34646294 -0.0034739971 0.33528751 10128237
-0.33614007 -0.0046656132 0.33408427 9997680
-0.32694104 -0.005967617 0.33446395 10061929
-0.31631812 -0.0066040158 0.33442226 9865580
-0.30647919 -0.0062099695 0.33623517 9930353
-0.29644865 -0.0061572194 0.33666652 9930606
-0.28737825 -0.0058759451 0.33500841 9667439
-0.27671942 -0.0057429671 0.33662939 9602418
-0.26717812 -0.0052845478 0.33677351 9535602
-0.25658688 -0.0039134622 0.33751711 9866357
-0.24725246 -0.0042507052 0.33732024 9866362
-0.23999147 -0.0043573976 0.33749419 10128001
-0.37143785 -0.0014532208 0.32702592 4937314
-0.36631927 -0.0011618137 0.32721564 8222058
-0.35543779 -0.0015090704 0.32681146 9669485
-0.34662035 -0.0017673969 0.32723829 9866606
-0.33576259 -0.0030008554 0.3266764 9734770
-0.32835448 -0.0048341751 0.32804176 9801044
-0.31571901 -0.0058884025 0.32833865 9668967
-0.30651769 -0.0055347681 0.32875168 9932658
-0.29644188 -0.005592525 0.32909292 9734261
-0.28620157 -0.0059444308 0.32918966 9668458
-0.27619037 -0.0050927401 0.33020577 9997939
-0.26643428 -0.0057335496 0.33086571 9800557
-0.25589842 -0.0038109422 0.33210051 9932661
-0.24610391 -0.0045204759 0.33112746 10130301
-0.23601787 -0.0039036274 0.33093217 10260343
-0.22610016 -0.0026156902 0.33126003 10063224
-0.21591917 -0.0026391149 0.33148655 10194042
-0.20615588 -0.0024345517 0.33205676 10128500
-0.19631825 -0.0021832585 0.33211735 10457207
-0.18633829 -0.0021852851 0.33216107 10522223
-0.17640319 -0.0018749237 0.33297125 10456691
-0.16649723 -0.0014885664 0.33367735 10129279
-0.15648705 -0.00082600117 0.33399841 10325114
-0.1461654 -0.0012616515 0.33409518 10129020
-0.13592806 -0.0017312765 0.33449835 9733247
-0.12637284 -0.0015302896 0.33464533 10128512
-0.11465936 -0.001444757 0.33475855 9866361
-0.10701063 -0.0020111203 0.33438402 9603201
-0.23227067 -0.0022857189 0.32466033 9667447
-0.22697859 -0.0022026896 0.32457542 9537659
-0.21485323 -0.0024288297 0.32552102 9931637
-0.20590712 -0.0018286109 0.32514647 9600376
-0.19615895 -0.0026910305 0.32578883 9735812
-0.18478571 -0.0017641187 0.32526097 9668219
-0.17580287 -0.001110971 0.32531559 9668724
-0.16603717 -0.0015864968 0.32677326 9799286
-0.15574908 -0.00091445446 0.32697588 10194560
-0.14584118 -0.0013663173 0.32708269 10063222
-0.13546664 -0.0012155771 0.32734641 9998207
-0.12560016 -0.0011425018 0.3269386 10654592
-0.11577289 -0.00062072277 0.32835272 10392446
-0.10561806 -0.00094985962 0.32852361 10588543
-0.095802836 -0.00059378147 0.32895836 10457461
-0.085647464 -0.00099122524 0.32913443 10523252
-0.075692639 -0.0004696846 0.32931647 11114609
-0.065948606 -0.00094634295 0.32934839 10918270
-0.055957902 -0.0015951395 0.32908493 10983816
-0.045702867 -0.00095134974 0.3302561 10720645
-0.036035635 -0.00090837479 0.33079392 10918019
-0.026043752 -0.00095307827 0.33120936 10852226
-0.016315797 -0.0011954308 0.33233529 10851968
-0.0064094793 -0.0015281439 0.33178762 11049077
0.0039700642 -0.00012224913 0.332932 10918271
0.014103317 -0.0004234314 0.33288926 11115137
0.024483057 -0.00088566542 0.33259991 10720631
0.034319274 -0.00042259693 0.33355066 10787465
0.04450909 -5.3942204e-05 0.33387697 10655363
0.053280391 -0.00068408251 0.33413327 10260852
0.064228609 -0.00063508749 0.33409056 10719874
0.074127547 -0.0018699169 0.3345257 11311746
0.083918989 -0.0021184087 0.33474201 10982272
0.09476421 -0.0016852021 0.33548027 10850167
0.10454975 -0.0021619797 0.33559084 10784101
0.11132163 -0.0023292899 0.33695471 10193019
0.12729311 -0.0022857785 0.33656999 10653053
0.13149011 -0.0023046732 0.33697051 10454883
-0.124422 0.0010690093 0.32123506 10853009
-0.11060994 0.00059634447 0.32171768 11311507
-0.095246695 0.00061798096 0.32191533 10457483
-0.085530132 0.0004453063 0.32248425 10853763
-0.075954229 -0.00058966875 0.32292861 10852492
-0.066189125 -0.00068372488 0.32302454 10719369
-0.054670721 -0.00066781044 0.32339802 10520695
-0.046671353 -0.00070357323 0.32334569 10062444
-0.036053721 -0.0017150044 0.32407752 10325878
-0.025618752 -0.0013686419 0.3242797 10325378
-0.016032871 -0.0016235709 0.32439241 10128257
-0.0046949941 -0.0016796589 0.32514584 9866614
0.0043208082 -0.00077986717 0.32544941 9603194
0.014503858 -0.00081509352 0.32588714 9930366
0.024709286 -0.0010874271 0.32575211 9930621
0.034634411 -0.0012946725 0.3267017 9800824
0.044742811 -0.0018643737 0.32702202 9931130
0.054701 -0.00127244 0.32745707 10325363
0.064306475 -0.0015935302 0.32796165 10324343
0.074738741 -0.0017931461 0.32828951 10193266
0.084382951 -0.0023508668 0.32838905 9537920
0.094229728 -0.0022622347 0.32919186 10128767
0.10406779 -0.0027426481 0.32971352 10259571
0.11456817 -0.0016959906 0.32965958 10325365
0.12463091 -0.0013561845 0.32961676 10720121
0.13416836 -0.0022445321 0.32948843 10916988
0.14420213 -0.0023826361 0.32938272 10982269
0.15436266 -0.0017482638 0.33065015 11048054
0.16429032 -0.0024369359 0.33100745 10982002
0.17392208 -0.0022075176 0.33125651 10851447
0.18435059 -0.0021700859 0.33212051 10654317
0.19430636 -0.002661705 0.33139569 11047790
0.20449747 -0.0023420453 0.33132425 10918259
0.21493207 -0.0023726225 0.33268854 11245931
0.22413062 -0.0032092333 0.33317327 10851693
0.23397028 -0.0025146008 0.33308429 10916716
0.24403375 -0.0024111867 0.33342567 10915431
0.2541132 -0.00355196 0.33387208 10652532
0.26437497 -0.0033628345 0.33398446 10522482
0.27452177 -0.0035505891 0.33381218 10916726
0.28527451 -0.0038996339 0.33396706 10652780
0.29428145 -0.0055046082 0.33446923 10718303
0.30430126 -0.0052335858 0.33450544 10324340
0.31448954 -0.0056734085 0.33624908 10718308
0.32414338 -0.0060002208 0.33635753 10783333
0.33422637 -0.0069232583 0.33695221 10782830
0.34410846 -0.0064434409 0.33785 10652518
0.35470909 -0.0056194663 0.33823454 10651237
0.36377656 -0.0058278441 0.3389481 5723231
0.12782551 -0.00051790476 0.32285532 10792595
0.13505313 -0.00065517426 0.32299545 10396820
0.14286405 -0.00063222647 0.322972 10131069
0.1556589 -0.0014704466 0.32382786 10394761
0.16427697 -0.0014964938 0.32399735 10065531
0.17356431 -0.0014215112 0.32442749 9996420
0.18480192 -0.0015619397 0.32468355 9074539
0.19434835 -0.0015298724 0.32460311 9862001
0.20476031 -0.0017542839 0.32480368 9994356
0.21417218 -0.0029029846 0.3252905 9928298
0.22466846 -0.0030439496 0.32597047 9335896
0.23490125 -0.0023238063 0.32654524 10322514
0.24526112 -0.002286315 0.32656649 10391399
0.25469726 -0.0032704473 0.32686615 10914422
0.26566187 -0.0033370852 0.32700986 11244136
0.27460408 -0.0032936931 0.3270711 11441761
0.28427729 -0.0039250255 0.32793629 11375984
0.29371244 -0.0050705671 0.32821819 10654060
0.30531183 -0.0049164295 0.32821628 11835764
0.31294113 -0.0057555437 0.32883817 10916983
0.3249613 -0.0072642565 0.3297435 11441510
0.33527553 -0.0076172352 0.3301039 11638894
0.3455824 -0.0062053204 0.33002335 11045464
0.35442778 -0.0050348639 0.33073869 10651496
0.36287996 -0.0051508546 0.33055684 6183013
-0.36436921 -0.0038852692 0.34767115 10130290
-0.35674757 -0.0034050345 0.3478955 10128755
-0.3468464 -0.0033819079 0.34914052 10260844
-0.33701858 -0.0050140023 0.35022578 10063222
-0.32667536 -0.0063439608 0.34941778 10129781
-0.31727678 -0.0065849423 0.35024235 10063223
-0.30736127 -0.0061608553 0.3499333 10260087
-0.2966837 -0.0067094564 0.35061404 10325878
-0.28705144 -0.0061092973 0.35151643 10391929
-0.27723312 -0.0059469342 0.35037562 10457446
-0.26718813 -0.0051946044 0.35192609 10655349
-0.25730005 -0.0050640702 0.35206923 11182201
-0.24730463 -0.003985405 0.35231104 11709570
-0.36601105 -0.0028729439 0.34055173 8223852
-0.35738301 -0.0023481846 0.34202719 10127471
-0.34640092 -0.0035242438 0.34152636 9995134
-0.33701989 -0.0038895011 0.34175372 9798777
-0.3261894 -0.0046786666 0.34185234 9930102
-0.31781504 -0.0052007437 0.34204721 10062192
-0.30717677 -0.0063441992 0.3432056 10126201
-0.29620546 -0.0062433481 0.34366521 10125676
-0.28737104 -0.0034754276 0.34364605 10259054
-0.27693033 -0.0053998828 0.34343803 10194292
-0.26633352 -0.0041126013 0.34451744 10195059
-0.25671804 -0.003924787 0.34462684 10194554
-0.24676637 -0.0033667088 0.34481242 10259832
-0.23662649 -0.0020268559 0.34563175 10195584
-0.22697525 -0.0013113618 0.34594634 10195844
-0.21647467 -0.00090616941 0.34579068 10392194
-0.20699349 -0.0013608336 0.34663758 10458238
-0.19676183 -0.00064003468 0.34658125 10456952
-0.18670073 -0.00061833858 0.3476111 10654079
-0.17690969 -0.00068354607 0.34799498 10325889
-0.16628392 -0.00030684471 0.34884116 10063482
-0.15708953 -0.00041902065 0.34853435 9799533
-0.14666127 -0.00022649765 0.34899732 9799800
-0.1359231 -0.0013508797 0.34943068 9734007
-0.12899591 -0.00074225664 0.34966657 9996663
-0.23403645 -0.0015962124 0.3386561 10325116
-0.22588268 -0.0013647079 0.33903223 10523003
-0.21593384 -0.0009894371 0.3396132 10524030
-0.20596062 -0.0014508963 0.33966467 10327422
-0.19619738 -0.00085800886 0.34061217 10130299
-0.18612388 -0.0011637807 0.34070328 10326394
-0.17656037 -0.00019598007 0.34148878 10392699
-0.1661901 -0.00016617775 0.34143263 9998714
-0.15625562 0.00013917685 0.34159955 10325619
-0.14629607 -0.00047504902 0.34168124 9997691
-0.13641013 -0.00097930431 0.34195939 9800314
-0.12633555 0.00056022406 0.34306216 10062713
-0.11634227 0.0009496212 0.34339881 10127990
-0.10618212 0.0007506609 0.3438327 9931889
-0.095976174 0.00036400557 0.34330842 10062964
-0.086428218 0.00044614077 0.34414166 10128506
-0.076297656 -2.0027161e-05 0.34438822 10061947
-0.066337645 -0.00022047758 0.34539968 10193268
-0.056596547 6.28829e-05 0.34561202 10193527
-0.046407174 -0.00021106005 0.34475449 10194046
-0.036415651 -0.00030308962 0.34526446 9996666
-0.025969611 -0.0010912418 0.34600896 10062453
-0.016247068 -0.0023639202 0.34643751 10062192
-0.0069641592 -0.0020373464 0.34646618 10193780
0.0036376561 -0.0010674596 0.34714049 10194284
0.013303618 1.1622906e-05 0.34752348 9931382
0.023565697 9.7751617e-05 0.34799761 9866357
0.033339497 -0.00019770861 0.34829679 9865331
0.043179896 -0.00033479929 0.34886956 10258039
0.05417572 -0.0014799237 0.3487525 9865840
0.063347168 -0.0017641783 0.34842348 9863783
0.073644698 -0.0013554692 0.34921539 10126704
0.083724529 -0.0015537739 0.34951356 9337972
0.092455067 -0.001942873 0.34912553 9863805
0.10369688 -0.001101315 0.35060483 10126207
0.11307021 -0.0020985603 0.35090849 9471614
0.11919835 -0.0016317368 0.35114652 9206397
-0.095144466 0.00080865622 0.3366091 9210497
-0.085248068 8.2910061e-05 0.33673769 9341827
-0.076310918 0.00060653687 0.33676085 8682878
-0.06586016 0.00018674135 0.33680341 9076851
-0.056053106 0.00051707029 0.33720845 9340529
-0.046528377 0.00038325787 0.33787 9602942
-0.035293348 -1.4305115e-06 0.33826277 9667707
-0.026503937 -0.00094771385 0.3382583 9667449
-0.016305715 -0.0017148852 0.33880872 9665899
-0.0057392004 -0.00076854229 0.33920237 9733238
0.0037197666 -0.00083225965 0.33937338 9930358
0.014532031 -0.00011050701 0.34022763 9732710
0.024217075 0.00050890446 0.34041217 10324846
0.03422771 -0.00061625242 0.34029192 10193775
0.043773316 -0.00064605474 0.34117043 10390894
0.05373713 -0.00090110302 0.34114677 10654327
0.063890852 -0.00098961592 0.34083208 10785914
0.074012235 -0.0018675923 0.34143633 10917500
0.083879642 -0.0015645623 0.34219122 10852233
0.093940288 -0.0012266636 0.34301054 10983295
0.10367631 -0.0019699931 0.34340039 10982778
0.11411798 -0.0017391443 0.34358844 11114880
0.12368248 -0.00082665682 0.34365484 11114623
0.13432945 -0.0014522076 0.34387875 11246464
0.14390571 -0.00123173 0.34435877 11245431
0.15399456 -0.0013219714 0.34490943 11245945
0.16366526 -0.0014899373 0.34509298 11377533
0.17373993 -0.002179265 0.34455967 11377282
0.18366736 -0.0023136139 0.34531531 11180403
0.19369727 -0.0023065209 0.34560126 11640192
0.20401077 -0.002874434 0.34586522 11377535
0.21337077 -0.0021722317 0.34604013 10983297
0.22404359 -0.0023265481 0.34729764 11245676
0.23328596 -0.0029873252 0.3481071 11246188
0.24432869 -0.0014745593 0.34852681 11179380
0.2536082 -0.0027456284 0.34789658 10916226
0.26368225 -0.0033943057 0.34801567 11442822
0.27410623 -0.0034547448 0.34871995 11245182
0.2839399 -0.003759861 0.35001248 11244920
0.29370958 -0.0049346685 0.34913185 10915969
0.30389151 -0.005292356 0.34920177 10982267
0.3136532 -0.0057864785 0.35044956 11048311
0.3235628 -0.0062957406 0.35042971 10980460
0.33356237 -0.0066228509 0.34999403 10915957
0.34418309 -0.0072565675 0.35028607 10390389
0.35353482 -0.007068336 0.35210148 9995116
0.36387202 -0.0065587759 0.35266364 4869477
0.3710849 -0.0063044429 0.35351378 6389137
0.11766684 0.00016194582 0.33645272 10325115
0.12212817 9.2387199e-06 0.33660862 10587259
0.13742417 -0.00051420927 0.33714306 10977385
0.14465423 -0.00066232681 0.33729431 10782065
0.1537824 -0.0010740161 0.33771464 10717553
0.16241954 -0.0010591745 0.33865231 10322547
0.17740531 -0.0012863874 0.33793151 10782566
0.18332256 -0.0019359589 0.3385947 10653552
0.19508123 -0.0017535686 0.33894441 10390907
0.20425308 -0.001635015 0.33881679 10520180
0.21405484 -0.0022806525 0.33944684 10586491
0.22405146 -0.0029143095 0.34069303 10718831
0.2346196 -0.0026120543 0.34019947 10785129
0.24399427 -0.0019468665 0.34071001 10720374
0.25390214 -0.0032015443 0.34146908 10719084
0.26417494 -0.00315696 0.34174687 10785641
0.27387118 -0.0028707385 0.34176797 10914911
0.28399065 -0.0029705763 0.34177944 10717026
0.29364011 -0.0041957498 0.34237707 10455416
0.30437201 -0.0045295358 0.34233549 10389871
0.31249371 -0.0053215623 0.34315088 10455662
0.32422382 -0.0059540868 0.34406146 9995871
0.33330169 -0.0061798096 0.34455174 10060130
0.34415996 -0.0070343614 0.3441301 9865064
0.35437259 -0.0060064197 0.34456092 10322282
0.3644844 -0.006673038 0.34532136 5328484
0.36979333 -0.0069571137 0.34515053 4934996
-0.33529478 -0.0065062046 0.37041494 10327910
-0.36647114 -0.0033878684 0.36226678 8551509
-0.35784858 -0.0027104616 0.36310324 9076581
-0.34685743 -0.0045480728 0.36337617 9340522
-0.33742583 -0.0047131777 0.3638573 9404777
-0.32786608 -0.0048500896 0.36437815 9338984
-0.31788573 -0.0057656169 0.36350048 9142376
-0.30806488 -0.0058524609 0.36455584 9470061
-0.29783186 -0.0052320361 0.36403611 9471852
-0.28775191 -0.0049594045 0.36484906 9537133
-0.27790597 -0.0037255883 0.3647176 9800037
-0.26719084 -0.0035492778 0.36528626 9735274
-0.26111034 -0.0031525493 0.3650853 9737073
-0.24859436 -0.0034450293 0.36586031 9933683
-0.3651596 -0.0026735067 0.35548887 9341043
-0.35724834 -0.0028848648 0.35560715 9866345
-0.34839877 -0.0038658381 0.35586554 9866087
-0.3340387 -0.0047693849 0.35720831 9799790
-0.32800865 -0.004743278 0.35762161 9799534
-0.3141394 -0.0046797395 0.35883191 9667440
-0.30739084 -0.0048408508 0.35759202 9996394
-0.29648677 -0.0050104856 0.35888371 9998189
-0.28682518 -0.0047782063 0.35893229 9734518
-0.27730259 -0.003713429 0.35914734 9799537
-0.26728904 -0.0040245056 0.35941616 9866098
-0.25696817 -0.0029335022 0.3601186 9866094
-0.24701822 -0.0020440817 0.35988465 9931646
-0.23701106 -0.00051879883 0.35912129 10456953
-0.22700001 -0.00040227175 0.35897043 10653557
-0.21697851 -0.00037735701 0.35928148 10786937
-0.2067562 -0.00077801943 0.35945624 10786679
-0.19686115 -0.00037926435 0.36088738 10655614
-0.18802914 0.00074541569 0.3613562 11114629
-0.17802654 0.0017877221 0.36194676 11643025
-0.16884284 0.001588285 0.36215028 11382416
-0.15530857 0.00028955936 0.36323825 11182965
-0.14710516 0.000844419 0.36290985 10985835
-0.13967721 0.00059014559 0.36316934 10987375
-0.12722448 0.00016403198 0.36360449 10990737
-0.24253708 -0.00048911572 0.35331458 10720883
-0.23735923 -0.0005953908 0.35366127 10852731
-0.2261579 -0.00010937452 0.35353941 10457987
-0.21744458 -0.00017315149 0.35323015 10457989
-0.20617549 -0.0008109808 0.35356706 10261109
-0.19703883 -0.00048089027 0.35354465 10326138
-0.18694137 0.00015062094 0.35520586 10655358
-0.1764819 7.9631805e-05 0.35570619 10458747
-0.16697252 0.00031995773 0.35626763 10196864
-0.15667941 7.2896481e-05 0.35619438 10392183
-0.14680526 -0.00053453445 0.35606602 10521976
-0.13704148 -0.00054818392 0.35715747 10522495
-0.12659088 0.00046497583 0.3567045 10391423
-0.11658494 0.0015859604 0.35694912 10325111
-0.10671369 0.00075912476 0.35698417 10390131
-0.097216561 0.00086653233 0.35678062 10259573
-0.086526677 0.00053924322 0.35673285 10062717
-0.076725088 0.00086277723 0.35835287 10260089
-0.066990085 0.00087666512 0.35816911 10325360
-0.056675557 0.00052464008 0.35836565 10391672
-0.046469148 0.00086271763 0.35887161 10326389
-0.036710043 -4.8279762e-06 0.35969782 9996411
-0.026986135 -0.00092244148 0.35951662 10127222
-0.016705612 -0.00045722723 0.36000729 10061942
-0.0073573398 -0.00077193975 0.3607381 9800049
0.0030071107 -0.00045335293 0.36089998 9932409
0.013115208 -0.00075787306 0.36148357 10062463
0.022177408 0.00092601776 0.36149955 10129016
0.034151431 0.00032478571 0.36215422 10653560
0.043328501 -0.0010837913 0.36228493 10718570
0.052715059 4.7504902e-05 0.36240438 10326629
0.063610859 -0.00029277802 0.36264193 10326393
0.072899416 -0.0010502338 0.36275554 10325616
0.083164707 -0.0027675033 0.36333913 10523759
0.092825994 -0.0027118921 0.36405316 10655366
0.10196479 -0.00077319145 0.36408496 10459020
0.11213592 -0.0010089874 0.36444488 10591611
-0.12298936 0.0012039542 0.34968033 10193280
-0.11263982 0.00084978342 0.35004196 10393216
-0.11005244 0.00076121092 0.35013235 10132048
-0.097766377 0.00088167191 0.35029516 9996909
-0.084276885 0.00059109926 0.35144949 10131337
-0.076416463 -0.00038987398 0.3513076 10325631
-0.064773232 -0.00078833103 0.35171446 10457983
-0.053539481 -2.1100044e-05 0.35215613 10063743
-0.046785254 0.00033265352 0.35235643 9997953
-0.036991335 -0.00032830238 0.3524698 10129280
-0.027363649 -0.0010349751 0.35306576 10195837
-0.016266955 -0.0022258162 0.35353947 10064751
-0.0052544056 -0.0011042953 0.35438505 10063980
0.0031936166 9.3579292e-06 0.35518745 9930354
0.013669971 -1.5318394e-05 0.35471421 10193531
0.023599289 0.00047886372 0.35540444 9864309
0.033168454 0.0003747344 0.35574672 9930094
0.043599378 0.00044715405 0.35619962 9997167
0.053378519 -0.0003964901 0.35624859 10258286
0.063345239 -0.00076365471 0.35634828 10456694
0.073279381 -0.0014159083 0.35626492 10259568
0.083510332 -0.0016721487 0.35634413 10061683
0.093451373 -0.00075650215 0.35683623 10456958
0.10346553 -0.00058948994 0.35734165 10258554
0.1133749 -0.0012438893 0.35776871 10324855
0.12359063 -0.00044697523 0.35772029 9930619
0.13329749 -0.00071018934 0.35803282 10193527
0.14324307 -0.00034165382 0.35890841 9996659
0.15339762 -0.00096827745 0.35918674 10456430
0.16327938 -0.0014210939 0.35952777 10193260
0.17326728 -0.0011605024 0.35960305 10390898
0.18347847 -0.0011175275 0.36003396 10654582
0.19348577 -0.0015791655 0.35955349 10522218
0.2033816 -0.002076447 0.35930043 10192755
0.21372971 -0.0021172166 0.360062 10456170
0.22320311 -0.0026254654 0.36097816 10390637
0.2333336 -0.0034646988 0.36126688 10389872
0.24342267 -0.0010641217 0.36241484 10060921
0.25343701 -0.00093448162 0.36242115 9667699
0.2636531 -0.0015843511 0.36324611 10324072
0.2734566 -0.0018445253 0.36315444 9930603
0.28317481 -0.0025449395 0.36383888 10520696
0.29354364 -0.0023856163 0.36382565 10455401
0.30311924 -0.0041610599 0.36392626 10454378
0.31347671 -0.0042429566 0.36475673 10454132
0.32335034 -0.0054367781 0.36443076 10454126
0.33334494 -0.0059669018 0.36508003 10060136
0.34328163 -0.0063064694 0.36510277 10783081
0.35325786 -0.0072707534 0.36617026 9796963
0.3632628 -0.0064216852 0.36648113 4738406
0.37325045 -0.0064775944 0.36813205 11120807
0.37879962 -0.0070399046 0.37095976 13750184
0.11814348 0.00021094084 0.35069421 8943998
0.12439632 -3.0398369e-06 0.35091269 9076098
0.13239782 6.3359737e-05 0.3508448 9338238
0.14694393 -0.00054782629 0.35146892 10128757
0.15124311 -0.00066256523 0.35158601 10128738
0.16535299 -0.00066697598 0.35249999 9930073
0.17360242 -0.001268208 0.35220438 9996911
0.18422419 -0.0010902286 0.35345185 10259058
0.19417918 -0.00084936619 0.35312194 10457706
0.20256397 -0.0015624762 0.35359782 10259573
0.21450759 -0.0012037754 0.35374659 10916982
0.22308441 -0.0023794174 0.35379043 10852209
0.23562138 -0.0028162003 0.35478532 10981744
0.24350099 -0.0013996959 0.35550967 11311478
0.25373381 -0.0014641881 0.35595694 11705723
0.26359358 -0.0018959641 0.35603377 11574660
0.273388 -0.0026307702 0.3561905 11508077
0.28310126 -0.0037981868 0.35679907 11376495
0.29396573 -0.0032567382 0.35758603 11771251
0.30350438 -0.0036854744 0.35730511 11771772
0.31360549 -0.0041449666 0.35877946 11838843
0.3227818 -0.0048820972 0.35781816 12168085
0.33378536 -0.0047882795 0.35835379 11903870
0.3428545 -0.0053565502 0.35802782 11641987
0.35383239 -0.0065651536 0.35893989 10984067
0.36303842 -0.0060246587 0.35982049 5460076
0.37247512 -0.0062590837 0.36028287 10069935
-0.37341535 -0.0023809075 0.37477791 4868442
-0.36759415 -0.0046091676 0.37578562 8419693
-0.35808218 -0.0048694015 0.37636629 9866858
-0.34801626 -0.0050856471 0.37531018 10063471
-0.33791795 -0.0058580637 0.37608662 10129777
-0.32812378 -0.0050925016 0.37594241 10654844
-0.31807643 -0.0046474934 0.37709224 10653047
-0.30816036 -0.004272759 0.37683934 10654318
-0.29824415 -0.0039097071 0.37806383 10523256
-0.2879132 -0.0035486817 0.37820706 10458238
-0.27840322 -0.004348278 0.37764403 10524542
-0.27289361 -0.0053572655 0.37781683 10590589
-0.36752954 -0.0031357408 0.36902806 8484719
-0.3580257 -0.0034554601 0.36928874 9472636
-0.34697846 -0.0041308403 0.3701334 9801589
-0.34059048 -0.0045798421 0.37059179 9868895
-0.32667068 -0.0044668913 0.37041149 9472641
-0.31804278 -0.0049235225 0.3710691 9866617
-0.30659622 -0.0042903423 0.37179703 9866097
-0.29814583 -0.0042629838 0.3719016 9142384
-0.28736499 -0.0038269758 0.37239185 9273976
-0.27757975 -0.0031798482 0.37165651 9142640
-0.26763508 -0.0031124353 0.37314311 9273455
-0.25752693 -0.0024006963 0.37289247 9601897
-0.24796225 -0.00060021877 0.37384126 9274733
-0.23758273 -0.00028216839 0.37349269 9076332
-0.22792427 0.00056672096 0.37395668 9930083
-0.21759821 0.00027352571 0.37483662 9865064
-0.20783104 -0.00058037043 0.37420374 9602160
-0.19717072 0.00012105703 0.37477088 9930088
-0.18793282 0.00099271536 0.37536854 10391156
-0.17725654 0.00092798471 0.37544858 11180404
-0.16860011 0.00063735247 0.37562627 10983018
-0.1576691 0.00048780441 0.3759577 10589300
-0.14528631 0.00010222197 0.37652999 9801319
-0.13822959 -0.00031125546 0.37695211 10654059
-0.13013484 -0.00023001432 0.3768692 11113074
-0.2565048 -0.00098019838 0.366202 10260857
-0.24371174 -0.00032132864 0.36695838 10392952
-0.23706989 0.00059640408 0.36670747 10129017
-0.22714926 0.0010798573 0.36716118 10063986
-0.21725333 0.0010802746 0.36767125 10260849
-0.20732175 0.00067722797 0.36784476 10062960
-0.19723475 -0.00011068583 0.36845833 10129535
-0.18729179 0.001324594 0.36868617 10195066
-0.17725988 0.001599431 0.36837754 10129274
-0.16704348 0.0011928678 0.36838225 10129016
-0.15752888 0.00069332123 0.36949527 10259826
-0.14729692 0.001367569 0.36976752 10194541
-0.13708609 0.0011872053 0.37003532 10457205
-0.12732722 0.00077694654 0.36977911 10589052
-0.11739136 0.0010624528 0.36950678 10851707
-0.10678924 0.00086289644 0.36987787 10589306
-0.09735623 0.0010553598 0.37051111 10524541
-0.08722733 0.00077271461 0.37169284 10654839
-0.077245206 0.0003233552 0.37106416 10719867
-0.06765119 0.0005081296 0.37168229 10851190
-0.057047352 0.00010049343 0.37230262 10720368
-0.04751879 -0.00017994642 0.37176132 11115129
-0.036950991 -0.00067156553 0.37157097 10983804
-0.027387012 -0.00089979172 0.37243491 10720638
-0.017471977 -0.00073266029 0.37256849 10918012
-0.0075824098 -0.00080305338 0.37337115 10916968
0.0018453219 -0.00053972006 0.37320873 10919802
0.013193255 -0.00087279081 0.37462124 11179632
0.022794668 -0.00041973591 0.37478942 10654313
0.031148933 -0.00028645992 0.37461808 10587753
0.045606934 0.00033169985 0.37486652 9470586
0.051580988 9.9182129e-05 0.37581849 10060670
0.063972369 -0.00034362078 0.37674695 9867629
0.084753238 -0.0010360479 0.37697759 10261119
0.090919308 -0.0012511015 0.37729919 10586730
0.10527847 -0.0017103553 0.37695152 10458496
0.10925657 -0.0018464923 0.37709051 10326898
-0.12406314 0.001853168 0.36330909 10130052
-0.11749955 0.0016285181 0.36353841 9995395
-0.10699783 0.0012691617 0.36390537 10390910
-0.095964529 0.0017938614 0.36397144 10062712
-0.0871801 0.0019733906 0.36495852 9998210
-0.077594087 0.0007853508 0.36487567 10258550
-0.066036277 0.00096166134 0.36508927 10258299
-0.057408579 0.00071841478 0.36569268 9800320
-0.047573287 0.00050568581 0.36553204 9931130
-0.036768332 -0.00059252977 0.36580637 9472642
-0.026890006 -0.0010119081 0.36623442 10390643
-0.01699638 -0.0007237196 0.36677399 10390653
-0.0063749026 -0.00055146217 0.36719349 10128493
0.0027175916 -0.00066429377 0.36734635 10194041
0.013462231 -0.00082480907 0.36809057 10389878
0.023470715 0.00013619661 0.36739576 10193515
0.032671999 -0.00012427568 0.36837187 10192487
0.04271017 -0.0006325841 0.36936519 9864558
0.053121865 0.00066065788 0.36999804 9865079
0.062995553 4.8696995e-05 0.36990774 9800567
0.073069327 -0.00048232079 0.37058079 9996661
0.082522437 -0.00081133842 0.3713114 10128231
0.092893593 -0.00087243319 0.3724438 10456430
0.10307773 -0.00032919645 0.37142989 10456945
0.11259565 -0.00018298626 0.37099034 10588278
0.12341085 0.0011059642 0.37149748 10588277
0.13289744 -0.00031936169 0.37247947 10455918
0.14260246 -0.00014770031 0.37270579 10521454
0.1528822 -0.0001847744 0.37366384 10588274
0.1629217 0.00014263391 0.37383834 10456688
0.17277335 -0.00076347589 0.3743259 10456944
0.18297057 -0.00096851587 0.37420377 10653804
0.19301973 -0.0012363791 0.37468809 10719346
0.20289469 -0.00072723627 0.37494445 10653806
0.21284707 -0.0017408729 0.37479356 10981238
0.22283584 -0.0012732148 0.37528527 10784371
0.23269346 -0.0015923977 0.37648267 10588785
0.24269947 -0.00094407797 0.37669331 10654578
0.25340223 -0.0014588237 0.37632611 10654334
0.26258469 -0.0026541352 0.37603468 10916983
0.27316284 -0.0023066998 0.37644395 10653812
0.28257793 -0.0026153326 0.37758982 10587761
0.29295945 -0.0027762055 0.37716046 10389876
0.30267018 -0.0038317442 0.37717229 10323303
0.31350404 -0.0039459467 0.37812263 10388834
0.32263863 -0.0042650104 0.37847835 10521198
0.33317199 -0.0042242408 0.37836578 10521453
0.34312689 -0.0055561662 0.37887734 9996648
0.35276636 -0.0059407949 0.37987497 9928292
0.36257392 -0.0059354901 0.38070062 4672611
0.37218475 -0.0071485639 0.38008082 11449519
0.38009754 -0.0069256425 0.38063291 13683644
0.10545534 0.00044363737 0.36474821 10326411
0.11792615 1.6868114e-05 0.36518398 10460279
0.12240864 0.00013965368 0.36505857 9931900
0.13279262 -0.00021904707 0.36556777 10326142
0.14408217 -0.00060540438 0.36596224 10062458
0.15340126 -0.0010703802 0.36649829 10852735
0.16309382 0.0010168552 0.36845037 10655089
0.17327847 -0.00046885014 0.36731321 10850412
0.18363495 -0.00077968836 0.36734706 10654324
0.1931354 -0.00062185526 0.36746937 10520945
0.20330045 -0.00055015087 0.3674778 10653300
0.21308678 -0.0010206699 0.36777109 11309925
0.22368404 -0.0020629168 0.36865252 10586735
0.23294055 -0.0010674596 0.3702926 10719078
0.24373752 -0.00093233585 0.36976364 11047026
0.25311142 -0.00083863735 0.36946553 11048038
0.26263845 -0.0020172 0.36940485 11375715
0.27340043 -0.0021588206 0.36970809 10982251
0.28348163 -0.0024704933 0.37074077 10850931
0.29317433 -0.0026715994 0.37050873 10720368
0.30295682 -0.0031859875 0.37121716 11113320
0.31275114 -0.003831625 0.37138322 10654827
0.32294151 -0.0051456094 0.37158647 10981218
0.33282268 -0.0052332878 0.37244987 11177838
0.34310797 -0.0055447221 0.3727085 10783331
0.35135469 -0.0065556765 0.37322164 10653813
0.36388177 -0.00569731 0.37355888 4738150
0.37252095 -0.0073958039 0.3740226 11252133
0.37910625 -0.0080229044 0.37434542 13750192
-0.36746728 -0.0033760071 0.3908357 9932407
-0.35833639 -0.0033888221 0.39099175 10325360
-0.34842777 -0.0042756796 0.39156467 10129779
-0.33898556 -0.0038328767 0.39232501 10128760
-0.32835478 -0.0036263466 0.39158225 10195565
-0.31815836 -0.0029684305 0.39211267 10194542
-0.30906489 -0.0028133392 0.39174789 10195072
-0.29795966 -0.0018681288 0.39235681 10195585
-0.28777945 -0.0024458766 0.3928515 9997175
-0.28045738 -0.0024670959 0.39296836 10195828
-0.3673752 -0.0019794703 0.3847532 9208678
-0.35690829 -0.0027202964 0.38465211 9801320
-0.34839389 -0.0026459694 0.38433793 9734766
-0.33713961 -0.0032776594 0.38474476 10062709
-0.32843027 -0.0030894876 0.38479093 9932665
-0.31794739 -0.0031660795 0.38509244 9801078
-0.30849215 -0.0026379228 0.38532332 10129018
-0.29793832 -0.0027642846 0.38599911 10260092
-0.28832692 -0.0018327832 0.38624173 10127990
-0.27811176 -0.0014779568 0.38686615 10259831
-0.2680701 -0.001287818 0.38641256 10128496
-0.25812125 -0.00098949671 0.38699302 10194556
-0.24868609 0.0011133552 0.38704368 10391155
-0.23828891 0.0014150143 0.38757554 10128754
-0.22827689 0.001404047 0.38761184 10327956
-0.21885358 0.0025041699 0.38794041 10589055
-0.20864552 0.0024573803 0.38817859 10722165
-0.1974387 0.0022159815 0.38866338 10393222
-0.18824139 0.0016178489 0.38927412 10523268
-0.17731126 0.0015271306 0.38936663 10589821
-0.16761313 0.0011952519 0.38970548 10851973
-0.15869775 0.00077211857 0.39013761 10918281
-0.15144959 0.00064212084 0.39027026 10983554
-0.24628305 0.00036132336 0.38114139 10195061
-0.23714802 0.00093072653 0.38164729 10260850
-0.22765248 0.0012786984 0.38144857 9866357
-0.21768549 0.0017236471 0.38281456 9866874
-0.20741779 0.0020422935 0.38244218 9669240
-0.19765893 0.0020191073 0.38305461 9471348
-0.18733001 0.0013828874 0.38251108 9865072
-0.177549 0.0016898513 0.38276955 9799545
-0.16744143 0.0020965338 0.38336501 9667194
-0.15759227 0.0022243261 0.38385892 9470328
-0.14786637 0.0016483068 0.3840293 9535853
-0.13748063 0.00073736906 0.38399935 9206901
-0.12766692 0.0020493865 0.38468096 9601389
-0.11783491 0.0021737814 0.38564786 9666920
-0.10777106 0.0015566349 0.38552573 9600619
-0.097756855 0.00090944767 0.38537374 9666920
-0.087272041 0.0017611384 0.38589522 9601128
-0.077587768 3.3080578e-05 0.38593549 9272431
-0.068139166 0.00073581934 0.38704178 9404276
-0.057723582 0.0013854504 0.38735011 9600878
-0.047895942 0.00051796436 0.38718948 9404533
-0.037932228 0.00059205294 0.38765147 9470575
-0.027578022 -3.9756298e-05 0.38807735 9732721
-0.01784431 -0.000408113 0.38826454 9469553
-0.0082901092 0.0008430481 0.38858104 10127980
0.0029841005 0.00021559 0.3894673 9864034
0.01152164 1.2695789e-05 0.39042029 9797734
0.022542592 -0.00034028292 0.38979486 9534822
0.031044286 -0.00073236227 0.38911632 9865560
0.042969413 -0.00041651726 0.39099389 9733229
0.051753424 -0.00081205368 0.39122844 9471851
0.061991587 -0.00016713142 0.39109659 10521693
0.071933664 -0.00038927794 0.39132342 10324855
0.081508771 -0.00094276667 0.39170989 10192242
0.088770673 -0.00096553564 0.39191169 9996140
-0.16380127 0.0026512146 0.37678576 11443833
-0.15714255 0.002423346 0.37701842 10587500
-0.15003994 0.0021802783 0.37726659 10128739
-0.12518339 0.0019695163 0.3777675 10521720
-0.11645614 0.0023576021 0.3776572 10390637
-0.10768005 0.0019366145 0.37803507 10456679
-0.097145364 0.0017822981 0.37832263 9932661
-0.087556161 0.0021415353 0.37963802 10129005
-0.077172197 0.0014701486 0.37894443 9932146
-0.066936769 0.0010461807 0.3794688 10391160
-0.057362005 0.0018366575 0.38060579 10654072
-0.046833415 0.0015126467 0.38009208 10456441
-0.037505139 0.0011566281 0.38029417 10259827
-0.027148396 0.00053060055 0.38093325 10457221
-0.017209178 0.00054121017 0.38065496 9996153
-0.0069405171 0.0018230081 0.38272068 10259059
0.0027540575 0.0017220378 0.38175383 10324848
0.011957769 0.0011152625 0.38326886 10324339
0.022054888 0.00063180923 0.38265866 10193779
0.032681368 0.00016629696 0.38184506 10260080
0.042351231 0.0013105869 0.38295788 10522481
0.052292641 0.00038594007 0.38294104 10653808
0.0623089 0.00049954653 0.38403818 10524020
0.072528698 0.0008597374 0.38437736 10654834
0.082145706 0.0001475811 0.38464075 10851443
0.092352718 -0.00033789873 0.38536993 10917747
0.10229309 -0.00094997883 0.38458189 10719605
0.11252131 -0.00056904554 0.38517419 10785652
0.12228477 0.00078070164 0.38626727 10916990
0.13232312 0.00019901991 0.38614938 10785906
0.14203206 -0.00079482794 0.38551471 10982524
0.15282789 -0.00051003695 0.38611332 11246196
0.16202448 -0.00033897161 0.38785464 10852452
0.17262946 5.1319599e-05 0.3866412 11049070
0.18240246 -0.00052285194 0.38770327 11050622
0.19252378 -0.00097775459 0.38735089 11049859
0.20247266 -0.00033402443 0.38938877 11247223
0.21221669 -0.0010274053 0.38934252 11444603
0.22232361 -0.00087624788 0.38977894 11377528
0.23213494 -0.0010929108 0.38980871 11245683
0.24215481 -0.0013369322 0.38996208 11574645
0.25231934 -0.0013366342 0.39001685 10849652
0.26262918 -0.00097554922 0.3904928 10915953
0.27247199 -0.001834929 0.39098042 11442827
0.28175113 -0.0015258193 0.39129275 10915196
0.29317543 -0.0019652843 0.39207491 11114343
0.30209848 -0.0032510757 0.39224452 10851708
0.31235814 -0.0040335059 0.39274901 11047543
0.32220966 -0.0044778585 0.39268881 10652524
0.33218104 -0.0054359436 0.39342487 10127995
0.34220889 -0.0049228072 0.39345121 10520444
0.35270262 -0.0057784915 0.3929534 9337445
0.36234283 -0.0072378516 0.39331391 4803935
0.37246057 -0.0068317056 0.39430544 12700094
0.37972334 -0.0075061917 0.39334965 13748416
0.041808009 0.0030874014 0.37634042 8417900
0.09840703 0.0011504889 0.37831807 10522721
0.11438619 0.0016738772 0.37826002 10654832
0.12198611 0.0021334291 0.37920269 10324856
0.13184127 0.00080382824 0.38021094 11113061
0.1440246 0.00035154819 0.38005248 10851438
0.15132688 0.00021380186 0.38070348 10915428
0.16331014 0.00040537119 0.38141063 10588523
0.17252968 3.9517879e-05 0.38214263 10520942
0.18200277 -0.00066673756 0.38180679 10784354
0.19266674 -0.0012419224 0.38157731 10521965
0.20274569 -0.00091958046 0.3823556 10521453
0.21253915 -0.00063031912 0.38294655 10719603
0.22267194 -0.00084632635 0.3830246 10720113
0.23228975 -0.0014832616 0.3835797 11113068
0.24315548 -0.001060605 0.38324097 10916201
0.25229383 -0.00099128485 0.38372985 11310712
0.26261723 -0.00086438656 0.38477561 11048301
0.27236384 -0.0014073253 0.38436678 10915434
0.28245386 -0.0017523766 0.38526043 10653293
0.29273742 -0.0012071729 0.38562518 10982263
0.30263522 -0.0020856261 0.38569212 11114600
0.31230003 -0.0030590296 0.38588816 10914902
0.32273486 -0.0040458441 0.38618883 10652247
0.3324458 -0.0042282939 0.38581759 10718045
0.34237269 -0.0047184825 0.38672671 10652263
0.35235578 -0.006293118 0.38681129 9864050
0.36196157 -0.0066219568 0.38704792 4868192
0.37238595 -0.0067591667 0.38802725 12501941
0.38032106 -0.0062583089 0.38756391 13617347
-0.37398592 -0.0037764907 0.40335673 5132363
-0.36819497 -0.0045055151 0.40267193 8879722
-0.35884094 -0.0032252669 0.40404809 9800552
-0.34860563 -0.0037865639 0.40563676 10194034
-0.33934024 -0.0034794807 0.40522549 10127995
-0.32902896 -0.0026415586 0.40480754 10062199
-0.31904241 -0.0029005408 0.40655902 10127990
-0.30948865 -0.0024566054 0.40596023 10325103
-0.29902494 -0.0015445948 0.40668449 10456164
-0.28824219 -0.00064945221 0.40730968 10389609
-0.2834546 -0.00081324577 0.40747696 10585725
-0.36889559 -0.0030540228 0.39690244 8945249
-0.3600049 -0.0033845901 0.39723995 10260088
-0.3501873 -0.0035193563 0.39880669 9997417
-0.33657342 -0.0038061142 0.398242 9998201
-0.32821545 -0.0031466484 0.3987439 10261361
-0.31895792 -0.0034134984 0.39881748 10260851
-0.30837658 -0.0024604201 0.39895469 10393213
-0.29862112 -0.001740694 0.3994365 10458748
-0.28879026 -0.0013793111 0.40076315 10260854
-0.27854025 -0.0009008646 0.40042073 10458235
-0.26877192 -0.00051164627 0.4001092 10457729
-0.25870726 0.00025606155 0.39964241 10653814
-0.24843216 0.0021844506 0.40182236 10260092
-0.23912881 0.0014590621 0.40136194 10523009
-0.22824366 0.0024451017 0.40224445 10721150
-0.21906006 0.0023656487 0.40232569 11442814
-0.20813583 0.0022121072 0.40308875 10784386
-0.20171818 0.0014244318 0.40233389 10916737
-0.27390882 -9.3877316e-05 0.39388004 10127486
-0.26918116 -0.00025564432 0.39404523 10128512
-0.2563518 0.00013029575 0.39424658 10325633
-0.24825795 0.0017732382 0.39492124 10456699
-0.23776813 0.0020609498 0.39443862 10259063
-0.22809468 0.002717793 0.39564604 10653805
-0.21810292 0.0023624897 0.39496866 10588020
-0.20817244 0.0025404096 0.39516297 10326392
-0.19833975 0.0025628209 0.39600787 10653819
-0.18796991 0.0023169518 0.39670879 10457471
-0.17832486 0.0021900535 0.39616698 10326140
-0.1682419 0.0018382072 0.39702228 10457983
-0.15827058 0.0023937225 0.39765871 10194812
-0.14818248 0.0020313263 0.39742666 10391415
-0.13827428 0.0019868612 0.39747187 10259829
-0.12820421 0.0022572875 0.39845011 10194558
-0.11837281 0.0018680692 0.39904976 10326401
-0.10818787 0.0014959574 0.39914498 10260345
-0.098695569 0.0019390583 0.3998141 10194296
-0.088085242 0.0011684895 0.39963925 10588009
-0.07830926 0.0010842681 0.40036744 10390902
-0.068467043 0.0010597706 0.40124896 10324599
-0.058258258 0.0012876987 0.40080613 10523779
-0.048327405 0.00072550774 0.40165371 10916222
-0.03840759 0.00022387505 0.40151796 10786165
-0.028400516 0.0010652542 0.40193835 10785402
-0.01785456 0.00027185678 0.40212908 10785390
-0.0090076039 0.00083917379 0.40305722 10917491
0.0017961741 0.0015861392 0.40281183 10655095
0.011770045 0.0019344687 0.4030517 10522228
0.02178929 0.0016205311 0.40383503 10194805
0.033129111 0.0013509989 0.40416768 9998440
0.04028108 0.0011681914 0.40402463 9931107
0.052396223 0.00049972534 0.40470704 9997177
0.06080538 0.00059741735 0.40603653 10723444
0.081485771 -0.00032043457 0.40609425 10522742
0.10077965 -0.00071638823 0.40666351 10063214
0.10733033 -0.00075483322 0.4074173 10593636
0.1175895 -0.0011059046 0.40777579 9997163
-0.1464083 0.0031220913 0.39059651 11311480
-0.13803354 0.0028355122 0.39088911 10786680
-0.12855315 0.0026734471 0.39166716 10589321
-0.11696979 0.0020619035 0.39247289 10196365
-0.10754427 0.0017482638 0.3926588 10588280
-0.097425029 0.001809299 0.39281046 10194559
-0.088787511 0.0016818047 0.39275077 10062450
-0.078312539 0.0010380149 0.39329597 9603447
-0.066583276 0.00074225664 0.39384291 9735034
-0.058300629 0.00094163418 0.39397722 9799805
-0.047646642 0.00031512976 0.39414617 9735288
-0.038037203 0.00081688166 0.39487404 9471866
-0.02838866 0.00036466122 0.39524135 9535605
-0.017817358 -4.6551228e-05 0.39549932 9470058
-0.0077047893 0.0013106465 0.39550856 9140080
0.0020022099 0.0010929704 0.3967174 9336940
0.012009433 0.00095200539 0.39740586 9336418
0.021796053 0.00089204311 0.39727071 9074026
0.032360483 0.00080156326 0.39712316 9270123
0.041598309 0.00076580048 0.39802122 9270895
0.052231085 0.00038361549 0.39837819 9008487
0.062051009 0.0009816885 0.39886212 9337189
0.072053164 0.00056618452 0.39865196 9535339
0.082056068 2.5391579e-05 0.39910412 9732200
0.092267595 0.0008302927 0.39970103 9994864
0.10207605 0.00017476082 0.39951417 9797738
0.11207964 -0.00020760298 0.4001745 9798254
0.12148092 0.00059467554 0.40044695 9864295
0.13178904 0.0011228323 0.40067649 9996397
0.14238912 0.00098663568 0.40142131 10455654
0.15213275 0.00061702728 0.40216091 10388829
0.16172564 0.00038093328 0.40111265 10389611
0.17206849 -0.00012731552 0.40274295 10125662
0.18173382 -0.00022751093 0.40311426 10389354
0.19200484 0.00034737587 0.40318838 10456699
0.20199588 -0.00030761957 0.40272066 10981231
