# .PCD v0.7 - Point Cloud Data file format
VERSION 0.7
FIELDS x y z rgba
SIZE 4 4 4 4
TYPE F F F U
COUNT 1 1 1 1
WIDTH 148
HEIGHT 1
VIEWPOINT 0 0 0 1 0 0 0
POINTS 148
DATA ascii
-0.029996065 -0.062897742 0.22630243 4508114
-0.024207827 -0.063207686 0.22700548 4508114
-0.014259612 -0.063998818 0.22671506 4508114
-0.0045145317 -0.064393938 0.2269842 4508114
0.0053098183 -0.064854085 0.22693039 4508114
0.015658941 -0.064424574 0.22756377 4508114
0.025946496 -0.064616024 0.22786911 4508114
0.03608596 -0.065145731 0.22782372 4508114
0.045750029 -0.065599084 0.22869608 4508114
0.053013183 -0.066003263 0.22871561 4508114
-0.023635846 -0.062478244 0.24065693 4508114
-0.015039938 -0.063530684 0.24064638 4508114
-0.0048587876 -0.063298821 0.24101405 4508114
0.0049361214 -0.064466655 0.24101189 4508114
0.014956242 -0.063732743 0.24103384 4508114
0.025415396 -0.063560665 0.24144959 4508114
0.035411652 -0.064250469 0.24220304 4508114
0.044799071 -0.064808726 0.24240108 4508114
0.053586561 -0.066024482 0.24203172 4508114
-0.023955315 -0.062896192 0.23430805 4508114
-0.014519854 -0.062591136 0.23452468 4508114
-0.0044697388 -0.062935948 0.23507667 4508114
0.0057185311 -0.063865423 0.23447408 4508114
0.015582618 -0.064299166 0.2343615 4508114
0.025185788 -0.064075768 0.23531146 4508114
0.035289675 -0.064210832 0.23520359 4508114
0.045350414 -0.064994752 0.23634693 4508114
0.052761193 -0.065563381 0.2365867 4508114
-0.031356037 -0.064064264 0.25303972 4508114
-0.025014922 -0.062385976 0.25397012 4508114
-0.015222249 -0.063286304 0.25459692 4508114
-0.0050520096 -0.062799871 0.25547472 4508114
0.0044621308 -0.063422561 0.25536954 4508114
0.013638608 -0.063509524 0.2554507 4508114
0.026336348 -0.063684344 0.25567678 4508114
0.034632992 -0.064005613 0.25639018 4508114
0.044549163 -0.064196527 0.25698584 4508114
0.051358026 -0.064319491 0.25699231 4508114
-0.030727642 -0.061855614 0.24891874 4508114
-0.025105655 -0.062568963 0.24703313 4508114
-0.015026273 -0.062511563 0.24787152 4508114
-0.0049950304 -0.062113464 0.24865101 4508114
0.0054207854 -0.062839687 0.24898741 4508114
0.014844731 -0.062877536 0.24858047 4508114
0.024906788 -0.063389599 0.24865675 4508114
0.035242956 -0.063304245 0.24987514 4508114
0.044981033 -0.063760519 0.25003996 4508114
0.052494198 -0.064377367 0.24986887 4508114
-0.025176456 -0.061601162 0.26892531 4508114
0.0052774893 -0.062272131 0.26986039 4508114
0.0098002786 -0.062872887 0.26933038 4508114
0.027968455 -0.063023031 0.27019823 4508114
0.030499695 -0.063126862 0.27016133 4508114
0.04469249 -0.063787043 0.27127272 4508114
0.052519303 -0.063931704 0.27184063 4508114
-0.031633794 -0.061329007 0.26144904 4508114
-0.025762428 -0.061877191 0.26150545 4508114
-0.015542867 -0.06162852 0.26291794 4508114
-0.0053491499 -0.06129086 0.26322094 4508114
0.0045964154 -0.062472045 0.26326999 4508114
0.014610222 -0.062861383 0.26313037 4508114
0.024106473 -0.062506378 0.26343945 4508114
0.034296934 -0.063051343 0.26373532 4508114
0.044403717 -0.06298244 0.26475075 4508114
0.05213036 -0.062646329 0.26563579 4508114
0.021713993 -0.061324596 0.25631636 4508114
-0.032049883 -0.061024487 0.28173462 4508114
-0.02760574 -0.061133802 0.2822749 4508114
-0.013350288 -0.061593056 0.28302976 4508114
-0.0069624828 -0.062087595 0.28339171 4508114
0.0037236447 -0.062993348 0.28303024 4508114
0.0093247583 -0.063368976 0.28269926 4508114
-0.032163624 -0.05972445 0.2747528 4508114
-0.025987934 -0.060643077 0.2762922 4508114
-0.016014891 -0.060923398 0.27592859 4508114
-0.0059499042 -0.061170101 0.27606899 4508114
0.0039342046 -0.062181056 0.27636644 4508114
0.014110335 -0.061825573 0.27657101 4508114
0.024001202 -0.062411904 0.27705973 4508114
0.034137592 -0.06250459 0.27747151 4508114
0.044080798 -0.062038481 0.27901858 4508114
0.051537834 -0.062183976 0.27837127 4508114
-0.032126252 -0.058219075 0.26886621 4508114
-0.013311128 -0.059807122 0.2690585 4508114
-0.0039318618 -0.060128152 0.26938617 4508114
-6.9812559e-05 -0.060260296 0.26952118 4508114
0.016481834 -0.060826719 0.27009949 4508114
0.019792162 -0.060939968 0.27021518 4508114
0.037079435 -0.061531603 0.27081922 4508114
-0.032178693 -0.060397089 0.29681477 4508114
-0.026673207 -0.060831428 0.29725823 4508114
-0.015473992 -0.061101973 0.29753447 4508114
-0.011096274 -0.061118543 0.29755139 4508114
0.0037183992 -0.06162554 0.29806906 4508114
0.013021017 -0.062407732 0.29868895 4508114
0.021486545 -0.062601447 0.29890665 4508114
0.049871806 -0.063205004 0.29968172 4508114
-0.033039644 -0.058799684 0.29018185 4508114
-0.026227782 -0.060676277 0.28989127 4508114
-0.016728254 -0.060559988 0.29005295 4508114
-0.0066712741 -0.060136616 0.29146716 4508114
0.0034396499 -0.061497509 0.29102051 4508114
0.013622092 -0.061837435 0.29105309 4508114
0.023795204 -0.062112331 0.29144913 4508114
0.03367212 -0.062056661 0.29173625 4508114
0.04345018 -0.062204063 0.29222056 4508114
0.049747761 -0.062959969 0.29257157 4508114
0.014117823 -0.060659707 0.28422061 4508114
0.023162734 -0.061056733 0.28462595 4508114
0.033786092 -0.061420262 0.28499717 4508114
0.04352751 -0.061753631 0.28533754 4508114
0.051296186 -0.061757088 0.28534099 4508114
-0.022911694 -0.060527503 0.31123942 4508114
-0.01711634 -0.060825586 0.31138501 4508114
-0.0072664535 -0.061287403 0.31165797 4508114
0.0029286805 -0.063453913 0.31267563 4508114
0.012098189 -0.06325841 0.3135514 4508114
0.02142857 -0.062630773 0.31310114 4508114
0.04541111 -0.063342154 0.31390908 4508114
0.048761781 -0.064776063 0.31271902 4508114
-0.033435345 -0.059428215 0.30303639 4508114
-0.02687674 -0.060651481 0.30406675 4508114
-0.016809529 -0.060924947 0.30420122 4508114
-0.0068873786 -0.060645163 0.30437604 4508114
0.002807528 -0.061442435 0.30486748 4508114
0.013231643 -0.062050462 0.30571839 4508114
0.023239257 -0.061679721 0.30600235 4508114
0.032735869 -0.061412156 0.30586722 4508114
0.043158434 -0.0619874 0.3061882 4508114
0.049292311 -0.063159108 0.30572766 4508114
-0.034079611 -0.058047354 0.29632112 4508114
0.034627546 -0.060457826 0.29973513 4508114
0.04373268 -0.061281741 0.29914713 4508114
-0.036018476 -0.058904946 0.31480479 4508114
-0.026623448 -0.059074342 0.31419384 4508114
-0.017475195 -0.060575843 0.31534895 4508114
-0.0074147498 -0.060370743 0.31477141 4508114
-0.0021782999 -0.060773849 0.31482568 4508114
0.015433014 -0.061145306 0.31508586 4508114
0.023179799 -0.061284661 0.3158488 4508114
0.032858789 -0.061623156 0.31639057 4508114
0.041625574 -0.062317729 0.31640211 4508114
-0.034995817 -0.056922436 0.31198892 4508114
-0.027656002 -0.058184505 0.312318 4508114
0.015401351 -0.059635222 0.31318665 4508114
0.025834708 -0.06039989 0.31396744 4508114
0.033672564 -0.060184538 0.31405377 4508114
0.041469619 -0.060573757 0.31434906 4508114
