# .PCD v0.7 - Point Cloud Data file format
VERSION 0.7
FIELDS x y z rgba
SIZE 4 4 4 4
TYPE F F F U
COUNT 1 1 1 1
WIDTH 163
HEIGHT 1
VIEWPOINT 0 0 0 1 0 0 0
POINTS 163
DATA ascii
0.23408233 -0.083599865 0.16016707 15000030
0.23990421 -0.085395694 0.16206543 15000030
0.24983205 -0.086235225 0.16230687 15000030
0.25969419 -0.087048888 0.16269486 15000030
0.26995251 -0.087144613 0.16223367 15000030
0.2800512 -0.087278306 0.16203029 15000030
0.29049501 -0.08645618 0.16223748 15000030
0.30037555 -0.08737731 0.16240458 15000030
0.30981013 -0.086997151 0.16321087 15000030
0.31983694 -0.085371435 0.16272406 15000030
0.32930362 -0.084941328 0.16247097 15000030
0.33571982 -0.083666205 0.162064 15000030
0.23357354 -0.080888927 0.15394901 15000030
0.23959342 -0.085324645 0.1524702 15000030
0.24995631 -0.086278379 0.15376014 15000030
0.26042697 -0.086026669 0.15363465 15000030
0.27033556 -0.086025774 0.15329395 15000030
0.2803739 -0.085812807 0.15296996 15000030
0.29034251 -0.08573103 0.15283363 15000030
0.3001937 -0.08628273 0.15283483 15000030
0.31011593 -0.085460603 0.15333116 15000030
0.31999153 -0.084598184 0.15415542 15000030
0.33037934 -0.083920538 0.155035 15000030
0.340195 -0.082396805 0.15621251 15000030
0.34738547 -0.079890013 0.1552586 15000030
0.2338073 -0.085273981 0.18244474 15000030
0.23999067 -0.085963309 0.18304652 15000030
0.2497683 -0.086283147 0.18314321 15000030
0.25939047 -0.087226868 0.18361914 15000030
0.26917651 -0.087543368 0.18382622 15000030
0.27920574 -0.087064564 0.18369663 15000030
0.28948396 -0.087031543 0.18327273 15000030
0.30015951 -0.086900055 0.18444251 15000030
0.30967993 -0.087209225 0.18424432 15000030
0.3196269 -0.087227404 0.18467179 15000030
0.32880431 -0.087176263 0.18485852 15000030
0.34157264 -0.0862149 0.18385036 15000030
0.34609845 -0.086264491 0.18392445 15000030
0.2331291 -0.083488882 0.17635593 15000030
0.23970722 -0.085775375 0.17502201 15000030
0.24971747 -0.086279094 0.17515649 15000030
0.2596702 -0.086935222 0.17513517 15000030
0.26979229 -0.086532354 0.17589046 15000030
0.27992204 -0.086551607 0.17625049 15000030
0.28996757 -0.087125003 0.175567 15000030
0.29993954 -0.086282194 0.17655045 15000030
0.30955654 -0.086955547 0.17618057 15000030
0.3195582 -0.087152958 0.17664561 15000030
0.32997876 -0.085962594 0.1776375 15000030
0.33971247 -0.086165726 0.17770879 15000030
0.34526113 -0.084972143 0.18109474 15000030
0.23214789 -0.08094281 0.16684034 15000030
0.23904915 -0.085874856 0.16725162 15000030
0.24993211 -0.086294532 0.16778877 15000030
0.25996369 -0.08648622 0.16827485 15000030
0.27020535 -0.085530996 0.1689146 15000030
0.27990633 -0.085452735 0.16857697 15000030
0.28973314 -0.0859465 0.16782196 15000030
0.29980192 -0.086321533 0.16872805 15000030
0.30941433 -0.086441815 0.16882604 15000030
0.32025537 -0.086032867 0.1680938 15000030
0.33046597 -0.085276306 0.16864216 15000030
0.3402414 -0.083887994 0.16739258 15000030
0.34613761 -0.082877755 0.16747825 15000030
0.23029481 -0.077512324 0.15747006 15000030
0.34326443 -0.081992209 0.16136079 15000030
0.34780103 -0.080041051 0.15844564 15000030
0.23015827 -0.072547615 0.1498182 15000030
0.23313245 -0.085850954 0.19577168 15000030
0.23927031 -0.086060047 0.19704542 15000030
0.24948879 -0.085814118 0.19726014 15000030
0.25912938 -0.085204184 0.19695532 15000030
0.27000773 -0.08635205 0.19777203 15000030
0.27925405 -0.086981952 0.19794106 15000030
0.28955641 -0.087471783 0.19819517 15000030
0.29956618 -0.087588429 0.19848803 15000030
0.30897507 -0.086883426 0.19872418 15000030
0.31924552 -0.087720335 0.19797823 15000030
0.3295967 -0.087610841 0.19836827 15000030
0.3390651 -0.086913884 0.19880459 15000030
0.34507519 -0.086184323 0.19728863 15000030
0.23230784 -0.083276093 0.1890341 15000030
0.23926641 -0.08664 0.18852089 15000030
0.24926214 -0.086046934 0.18892245 15000030
0.25935075 -0.086214483 0.19027613 15000030
0.26963001 -0.086797476 0.18997604 15000030
0.27984771 -0.086456895 0.1895628 15000030
0.28968999 -0.086029828 0.18932015 15000030
0.29914632 -0.088067532 0.18958889 15000030
0.30999625 -0.087145507 0.19051468 15000030
0.31961179 -0.086875558 0.19044012 15000030
0.32984692 -0.086978376 0.19007853 15000030
0.33938122 -0.086581469 0.18988028 15000030
0.34462741 -0.086301625 0.1857778 15000030
0.23156878 -0.078254402 0.18217622 15000030
0.34004435 -0.08506763 0.18393406 15000030
0.23191065 -0.074702561 0.1762386 15000030
0.24015652 -0.08668524 0.21853238 15000030
0.26161218 -0.086926758 0.2188483 15000030
0.2695421 -0.086947739 0.21910436 15000030
0.27950397 -0.087103844 0.21901068 15000030
0.28989148 -0.087220609 0.2191125 15000030
0.29832 -0.087834537 0.2198301 15000030
0.30841595 -0.087397099 0.21961233 15000030
0.31970423 -0.087906063 0.21970645 15000030
0.32912925 -0.087264359 0.21957743 15000030
0.33849925 -0.087914407 0.21982953 15000030
0.23304094 -0.083383322 0.21040787 15000030
0.23903614 -0.08594662 0.21165831 15000030
0.24897602 -0.086060822 0.21134204 15000030
0.25910085 -0.086354852 0.21183538 15000030
0.26912993 -0.086595416 0.21186292 15000030
0.27927938 -0.086301804 0.21240193 15000030
0.28899041 -0.08673811 0.21222636 15000030
0.29923603 -0.086940289 0.21248487 15000030
0.30943865 -0.087601125 0.2122815 15000030
0.31924751 -0.087394416 0.21297383 15000030
0.32937098 -0.087228715 0.2128824 15000030
0.33826923 -0.088100493 0.21251638 15000030
0.23210248 -0.081506431 0.20231254 15000030
0.23989864 -0.085956216 0.20324075 15000030
0.24902311 -0.085857928 0.2036691 15000030
0.26000738 -0.084993601 0.20289849 15000030
0.26836768 -0.08584708 0.20358086 15000030
0.27965593 -0.086456001 0.20461643 15000030
0.28859258 -0.086434305 0.20475364 15000030
0.29915309 -0.086391389 0.205189 15000030
0.30999288 -0.086995006 0.20479271 15000030
0.31916171 -0.08649236 0.20479068 15000030
0.32892942 -0.086479485 0.20502107 15000030
0.33840346 -0.086394191 0.20486858 15000030
0.22931229 -0.077656925 0.19244909 15000030
0.23053345 -0.072961032 0.18494815 15000030
0.23172458 -0.068068027 0.17816208 15000030
0.24732669 -0.086896956 0.23017517 15000030
0.2995249 -0.087593675 0.23139592 15000030
0.30524892 -0.089540303 0.22956988 15000030
0.32038808 -0.089459479 0.23034824 15000030
0.23136744 -0.082821012 0.22454767 15000030
0.23873667 -0.085513473 0.22449991 15000030
0.2491141 -0.085251153 0.22482152 15000030
0.25881842 -0.086503983 0.22418794 15000030
0.26883921 -0.086769342 0.22511321 15000030
0.27893487 -0.086196959 0.22444014 15000030
0.28915963 -0.085693777 0.22518796 15000030
0.29921892 -0.086241961 0.22619091 15000030
0.3090252 -0.086814106 0.22547229 15000030
0.31933323 -0.08622086 0.22587164 15000030
0.32929704 -0.086916804 0.22531472 15000030
0.33805776 -0.086840034 0.22598797 15000030
0.23101884 -0.078053296 0.21700208 15000030
0.23444393 -0.083674788 0.21781009 15000030
0.25021571 -0.083824039 0.21863227 15000030
0.25565112 -0.084216177 0.218619 15000030
0.26875091 -0.084606946 0.21920286 15000030
0.33007231 -0.085278809 0.22020662 15000030
0.23081028 -0.072194993 0.20912571 15000030
0.23053913 -0.068153679 0.20316005 15000030
0.22938898 -0.072315454 0.21881694 15000030
0.22950657 -0.06549722 0.2116265 15000030
0.22966862 -0.064418674 0.20701852 15000030
0.23094669 -0.052714229 0.21649894 15000030
0.23083095 -0.050002575 0.21424524 15000030
