# .PCD v0.7 - Point Cloud Data file format
VERSION 0.7
FIELDS x y z rgba
SIZE 4 4 4 4
TYPE F F F U
COUNT 1 1 1 1
WIDTH 1087
HEIGHT 1
VIEWPOINT 0 0 0 1 0 0 0
POINTS 1087
DATA ascii
0.26077092 0.0017907023 0.21596768 9273731
0.26940629 0.0020264387 0.21561562 9341574
0.28040889 0.0017115474 0.21608599 8881784
0.29035255 0.0017386675 0.21604556 8946035
0.30039054 0.0015973449 0.21625677 9078649
0.30973655 0.0013902783 0.21656603 8945782
0.31967539 0.0012813807 0.21672872 8881279
0.3255313 0.00094521046 0.21723092 8880494
0.33970633 0.00078994036 0.21746294 9209466
0.34972662 0.0006801486 0.21762697 9010032
0.36806121 0.00061529875 0.21772391 9209458
0.39838085 0.00069111586 0.21761063 11910606
-0.35778579 -0.0063204765 0.26008803 4017000
-0.35095739 -0.0072097778 0.26112244 6842721
-0.34123963 -0.006220758 0.26055536 7630438
-0.3319582 -0.0060661435 0.26016238 7370092
-0.32053712 -0.0045036674 0.25953108 7830121
-0.31109241 -0.004607141 0.2596857 8025687
-0.30189884 -0.0047277808 0.25986594 8024930
-0.35722727 -0.0052119493 0.2530385 4280169
-0.35042492 -0.0055738688 0.25114647 7567200
-0.34074411 -0.0053383112 0.25150678 8158060
-0.33067495 -0.0054475069 0.25220442 8222828
-0.32087788 -0.0041998029 0.25248492 8223603
-0.31053686 -0.00437814 0.2528258 8420207
-0.30119103 -0.0026240349 0.25344396 8420203
-0.29087913 -0.0017749667 0.25424221 8289388
-0.28082952 -0.0019512177 0.253647 8552299
-0.27111092 -0.0012865067 0.25305966 8487535
-0.26203141 -0.00020599365 0.25275049 8751222
-0.25072482 -0.00017768145 0.25252837 8554369
-0.23034446 -0.00035589933 0.25333399 8685689
-0.21920043 -0.00047796965 0.25351641 8487021
-0.35687384 -0.0026000142 0.24589975 4281708
-0.35230201 -0.0046061277 0.24453084 7239530
-0.33873573 -0.0045493245 0.24449749 7763575
-0.3306385 -0.0035512447 0.24388836 7697269
-0.32167479 -0.0042135715 0.24459493 8024952
-0.30980253 -0.0053004622 0.2445409 8157807
-0.29984412 -0.0036665797 0.24470346 7959407
-0.2905221 -0.0027429461 0.24516171 8025970
-0.28058514 -0.0026990175 0.24409711 8025458
-0.26995179 -0.0021039248 0.24502704 8157805
-0.26081783 -0.0005671978 0.24583654 8157551
-0.2505393 -0.0005800724 0.24506259 7960440
-0.24067356 0.00010490417 0.24590401 8025457
-0.23055953 0.0009560585 0.2468473 8157044
-0.22042464 0.0011456013 0.24729122 8025201
-0.21090369 0.0017805099 0.24694958 7697268
-0.20064485 0.002776444 0.24668045 7761780
-0.19064118 0.0027056336 0.24651216 7761775
-0.18067679 0.002086401 0.24614216 7696758
-0.17033458 0.0027304888 0.2464623 7697007
-0.16037245 0.0025632381 0.24686606 7434357
-0.15066461 0.0029259324 0.24721256 7500917
-0.14013259 0.0029615164 0.24789792 7499637
-0.13076238 0.0023834705 0.24810213 7958641
-0.12120044 0.0029307604 0.24778105 7762031
-0.11033081 0.0024092197 0.24750735 7563889
-0.10055628 0.0023162961 0.24871904 7434103
-0.091025092 0.0025451779 0.24851505 7236730
-0.080411166 0.0030178428 0.24829309 7170931
-0.070251368 0.002435863 0.24787834 7368830
-0.061179582 0.0025048852 0.24851221 7565436
-0.050430465 0.0025482774 0.24881488 7828855
-0.040578783 0.0020233393 0.24904361 7696757
-0.030811835 0.0013629198 0.24824886 7698029
-0.020355808 0.0017668605 0.24926335 7893884
-0.011902461 0.0021322966 0.2488675 8355455
-0.00024966881 0.0028364658 0.24856439 9143166
0.009124184 0.002753675 0.2486881 9341057
0.018787764 0.0027672052 0.24866781 9410443
0.029677665 0.0025433898 0.24900223 9606793
0.039317895 0.0024029613 0.24921207 9737367
0.048839081 0.0024380088 0.24915972 9212803
0.059357032 0.0023227334 0.24933189 9078664
0.069874994 0.0022075176 0.24950406 9473930
0.07953012 0.0019822717 0.24984056 9079948
0.091454834 0.0005838871 0.24996854 9211271
0.099697433 0.00077605247 0.24984483 9342085
0.10928012 0.00080680847 0.25094312 9407620
0.11908032 0.0015639067 0.25046566 9475730
0.13123299 0.0011546016 0.25082037 10001044
0.13918005 4.0411949e-05 0.2512612 9541513
0.15010017 0.00099414587 0.25131693 9868438
0.1579518 0.00092899799 0.25141424 10130566
0.16898365 0.00025939941 0.25211477 10196885
0.17730844 0.0010305047 0.25126263 10593169
0.239659 0.00018018484 0.25253308 10066059
0.24642648 0.00027322769 0.25239402 10066849
0.27121878 1.6093254e-06 0.25279984 9803156
0.27968445 -0.00048011541 0.25331983 9933209
0.29089874 -0.0011382699 0.25422645 9734783
0.2983343 -0.0016568303 0.2545782 10128234
0.30652907 -0.00038522482 0.25337783 9337949
0.32169908 -0.0007186532 0.25387597 8617844
0.33082056 -0.00065135956 0.25377545 8877184
0.34053883 -0.0011161566 0.2544699 9143674
0.35010347 -0.00086265802 0.25409108 8421231
0.36186868 -0.0011308789 0.25449187 9404017
0.37060735 -0.0014815331 0.25485235 7366516
0.37975764 -0.0036795139 0.25620168 4280942
0.38870826 -0.0044788718 0.25666222 11383729
-0.26030311 5.1259995e-06 0.23857519 7302253
-0.25036862 -0.00044733286 0.23818879 7958386
-0.23985323 -0.00016754866 0.23831011 8025696
-0.22986916 0.0011509061 0.23759899 8352615
-0.22019006 0.0020173788 0.23763898 8222822
-0.21061212 0.0014452338 0.23805787 8288623
-0.200058 0.0021407604 0.23825173 8486518
-0.19015987 0.0022910833 0.23769335 8488056
-0.18071792 0.0022552609 0.23737396 8751478
-0.1701462 0.0020038486 0.2375429 8618867
-0.16035609 0.002317965 0.23759589 8487283
-0.15014544 0.0027413964 0.23858365 8420980
-0.14032179 0.0027779341 0.23984246 8419957
-0.13049816 0.002879262 0.23862912 8553079
-0.12045097 0.0029714108 0.23833708 8289907
-0.1103953 0.0026561618 0.2387259 8355694
-0.10024213 0.0025445223 0.23914586 8486511
-0.090369165 0.0027229786 0.23920541 8552572
-0.080667645 0.003600359 0.23975828 8618364
-0.070669152 0.0026584864 0.23955351 8552577
-0.060160343 0.0031223893 0.24032454 8552318
-0.05011424 0.0029306412 0.24006376 8487292
-0.040389936 0.0034343004 0.24004667 8355452
-0.030525196 0.0020829439 0.23983829 8290430
-0.019790612 0.0019888878 0.24057965 8354943
-0.010321017 0.0031390786 0.24118285 8618369
-0.00061008066 0.0037813783 0.24182296 8880260
0.0098693855 0.0037730336 0.24202827 8684426
0.019519908 0.0033973455 0.2419657 8552855
0.029337173 0.0037205219 0.24239539 8553105
0.039807402 0.0033737421 0.24249654 8684943
0.049643945 0.0024777651 0.24204959 8619661
0.05934846 0.0030904412 0.24288906 8947345
0.069755368 0.0026029944 0.24273078 9079190
0.079724543 0.0024017096 0.2427626 9013398
0.089261644 0.0020958781 0.24296325 9210002
0.099595167 0.00091797113 0.24206932 9079186
0.10959134 0.0014992356 0.24239308 9210510
0.11939725 0.0020064712 0.24340138 9211022
0.12960145 0.0017032623 0.24385092 9407891
0.1396492 0.0016489625 0.24372227 9539216
0.14990336 0.0021729469 0.24488099 9671577
0.15952079 0.0017175674 0.24380614 9736847
0.16935776 0.0016216636 0.24427323 9736592
0.17960593 0.0023654103 0.24443239 9604749
0.18968864 0.0011478066 0.24386325 9801095
0.19944488 0.0022255778 0.24498227 9735043
0.20984031 0.00301373 0.24487887 9669505
0.21930595 0.0023604035 0.24536674 9800580
0.22954923 0.001994133 0.24525324 9603465
0.2398012 0.0021140575 0.2460123 9602951
0.24915661 0.0024669766 0.24575078 9537930
0.26005456 0.0021828413 0.24631934 9407112
0.2693927 0.001552403 0.24634773 9602439
0.27933857 0.0010576248 0.24643886 9536897
0.28931648 0.0011005998 0.24668026 9471098
0.29952407 0.00099223852 0.24688916 9405307
0.30972743 0.0008392334 0.246833 9405559
0.31963143 0.00052219629 0.24739394 9207670
0.32984623 -0.00023239851 0.24656738 9273727
0.33944508 -0.00083643198 0.24663594 9077106
0.34938607 -0.0015010834 0.24633259 9012080
0.35976321 -0.0014837384 0.24701035 9339252
0.36944127 -0.0013542175 0.24738196 7826546
0.37939179 -0.00254637 0.24653879 3951722
0.38926339 -0.0028403401 0.24640256 10924982
0.39603439 -0.0032178164 0.24502482 11777463
-0.13264742 0.0037580729 0.2310068 8221305
-0.11630774 0.0035790205 0.23127426 7894379
-0.078859858 0.0040050745 0.23227213 7893640
-0.070813 0.0043837428 0.23186967 7893628
-0.04946357 0.0028467178 0.23236842 7762561
-0.041164976 0.0032393932 0.23250102 8092026
-0.0098921005 0.0039582849 0.23430327 8352389
0.00052616961 0.0037852526 0.23348293 8683903
0.0094681121 0.0033997893 0.23393901 8421508
0.020389874 0.0035385489 0.23415983 8486271
0.029320609 0.0035111904 0.23411505 8356225
0.040121105 0.0039750934 0.23399068 8618886
0.049637783 0.002699554 0.23373215 8815247
0.059978627 0.0025787354 0.23428255 8684433
0.068908758 0.0026540756 0.23380665 8750990
0.08060576 0.0027415752 0.23475134 9013648
0.0896613 0.0020692348 0.23496825 9013396
0.099352218 0.0017154217 0.23461184 9014414
0.10945119 0.0020026565 0.23434851 9407886
0.12238123 0.0018986464 0.23489133 9275528
0.12980343 0.0024211407 0.23454523 9604747
0.13983235 0.0033459663 0.23556609 9801359
0.14957291 0.0035281777 0.23638421 9736598
0.15825503 0.0010163784 0.23590213 9408661
0.16994467 0.0012195706 0.23627977 9538705
0.17857507 0.00094783306 0.23640421 9538703
0.19247299 0.00098127127 0.23755266 9931905
0.20049609 0.00093352795 0.23679988 10000009
0.20975116 0.0026817322 0.23768167 9735561
0.21986021 0.002451241 0.23775339 9932421
0.22977182 0.0026102662 0.23833981 9866631
0.23949571 0.0018875003 0.23769662 9933433
0.24987505 0.0022188425 0.23756804 10063756
0.25882778 0.0031095147 0.23839661 10260877
0.27000821 0.0014384389 0.23765339 10392462
0.28002897 0.0023561716 0.23766503 10195836
0.28916651 0.0011862516 0.2373554 9932669
0.30021808 0.0027585626 0.23777391 9998720
0.3094494 0.0012054443 0.23744451 10063243
0.31983095 4.6789646e-05 0.23813382 9668730
0.32881159 0.00019365549 0.23812996 9601407
0.33948722 -0.00074124336 0.23815203 9536118
0.34573469 -0.00069779158 0.24006137 9470586
0.36274222 -0.0016693473 0.23911576 9077372
0.36794117 -0.0017263293 0.23920086 9208182
0.38239172 -0.0016491413 0.23980457 3295077
0.38733935 -0.0014677048 0.24025279 10204101
-0.35707352 -0.0041942 0.2752493 5397106
-0.3512685 -0.0055813789 0.27359137 7500137
-0.3416535 -0.0045893788 0.27338293 7894638
-0.33079681 -0.0043526292 0.27432641 7959920
-0.32131863 -0.003957808 0.27429709 8222576
-0.31475791 -0.0027410388 0.2730782 8223348
-0.30014387 -0.0029152632 0.27333847 8091504
-0.29355353 -0.002846539 0.27323577 8222829
-0.34994662 -0.0069473386 0.26677763 7367777
-0.34097916 -0.0057013035 0.26685256 7762540
-0.33053544 -0.0020492673 0.26695088 7696235
-0.32050386 -0.0021966696 0.26645675 7696228
-0.31095502 -0.0030524731 0.26647475 7958882
-0.30099165 -0.0028647184 0.2664924 7959399
-0.29126042 -0.0014424324 0.26705524 8025195
-0.28096816 -0.00065803528 0.26713556 7697007
-0.2707085 -0.00018680096 0.26691955 7829116
-0.26102605 -0.00055515766 0.26732966 8091246
-0.25109139 0.00028377771 0.26729399 7500146
-0.24165331 0.00045162439 0.26740912 7629675
-0.23019411 0.00088250637 0.26743975 7826539
-0.22171436 0.00051265955 0.26741806 7038828
-0.211429 0.0015388727 0.2666837 7630177
-0.20180418 0.0014334321 0.26684123 7829357
-0.18812685 0.001283586 0.26706514 7828079
-0.18079658 0.00078046322 0.26781681 7762022
-0.1744495 0.0011337399 0.26728901 7829097
-0.045274552 -0.00028151274 0.26940346 8553328
-0.02957093 -0.00045353174 0.2696605 8223355
-0.020624684 -0.0010069013 0.27048725 8157301
-0.014120596 -0.00062280893 0.26991341 8026998
0.38856637 -0.006021142 0.27797893 11449258
-0.32349733 -0.0023941398 0.25997493 7765615
-0.30843359 -0.002559185 0.26022148 8091733
-0.2971358 -0.0026829243 0.26040643 8157036
-0.2904678 -0.0023369789 0.25988936 8027758
-0.27980632 -0.0015731454 0.2592878 8092520
-0.27015242 -0.0011774302 0.25895622 8025458
-0.2609179 -7.0095062e-05 0.25784063 8354938
-0.25107986 0.00054466724 0.25892919 8027505
-0.24085283 0.00089943409 0.25902191 8355174
-0.23080428 0.0013118386 0.25960204 8485995
-0.2209183 0.0010963678 0.25972208 8354658
-0.21069705 0.002548933 0.26006478 8223082
-0.20058122 0.0024815202 0.26013348 8224105
-0.19072823 0.0030974746 0.26066306 8157806
-0.18048324 0.0029166937 0.2609261 8157808
-0.17091417 0.0037479401 0.2611542 7960943
-0.16103342 0.0037181377 0.26201564 8157039
-0.15043983 0.0018646717 0.26042733 8223092
-0.1407001 0.0022593737 0.26101249 8223088
-0.13095833 0.0032711029 0.26080751 8223856
-0.12081721 0.0033318996 0.26173654 8091765
-0.11069594 0.0028443933 0.2628127 8091506
-0.10056658 0.0034846663 0.26236784 8157297
-0.090901062 0.0033897758 0.26270601 8025967
-0.080768369 0.0033435225 0.26144955 8092787
-0.070854403 0.0030955672 0.26221776 8025715
-0.060513254 0.0023699999 0.26293263 8157042
-0.050975364 0.0024308562 0.26300308 8354682
-0.040625218 0.0019778013 0.26394299 8420216
-0.030582247 0.0017161965 0.26364428 8354431
-0.020759635 0.0015792847 0.26376006 8354940
-0.011251308 0.0019735694 0.26354513 8355453
-0.0013067556 0.0037347078 0.26220447 8356225
0.0098073455 0.0026112199 0.26355639 8487297
0.019486221 0.0019870996 0.26295757 8553602
0.029128904 0.0015052557 0.2634531 8553609
0.039103959 0.001757741 0.26384011 8685187
0.049488761 0.0028287768 0.26371962 8750721
0.058988631 0.0022873282 0.2649841 8749705
0.069248073 0.002773881 0.26483881 8881811
0.0791279 0.002394855 0.26514831 8948622
0.089782625 0.0034183264 0.26387578 8619663
0.099231452 0.0018388033 0.26438019 9079178
0.10939305 0.0012274981 0.26387036 9012873
0.11904349 0.001744628 0.26586285 9014155
0.12979849 0.0017034411 0.26469824 9013384
0.13921516 0.0013104081 0.26510313 9275789
0.14910872 0.002004683 0.26492557 9210005
0.15939383 0.0023680329 0.2650218 9341320
0.16939384 0.0015007257 0.26551828 9538184
0.17878765 0.00100106 0.26534384 9340800
0.18846363 0.00093358755 0.26579043 9603198
0.19948418 0.0010697246 0.2652275 9341059
0.20930822 0.0015880466 0.26616091 9077383
0.21950124 0.0010475516 0.2660695 9274247
0.22863092 0.0011473298 0.26641715 9207932
0.24026881 0.0012196302 0.26659301 9143166
0.24907929 0.00099146366 0.26701143 9012091
0.25859883 0.0011509657 0.26702899 9207929
0.26918849 0.0011870265 0.26712787 9208436
0.27928391 0.0010177493 0.26706287 8289914
0.28964746 0.0012091398 0.26707652 8879229
0.29918197 0.00029224157 0.2678993 8748410
0.30915335 0.00026988983 0.2683031 9076602
0.31920373 -0.00089359283 0.26910377 9011321
0.32935205 0.00030517578 0.26782775 8878711
0.34008026 -0.001058042 0.26749006 8746098
0.34868541 -0.0016671419 0.26862225 8878193
0.3598451 -0.0015689731 0.26943734 9074284
0.36875412 -0.0028514266 0.26877055 7300967
0.37978747 -0.0027002692 0.26889053 4477040
0.38833547 -0.0039064884 0.27009034 11056308
-0.2389129 0.003105402 0.25175825 8289399
-0.20753996 0.0024821758 0.25268918 8156542
-0.20050527 0.0025448203 0.2525956 8155763
-0.19040719 0.0028883219 0.25250581 8026481
-0.17979433 0.00277704 0.25224888 7960435
-0.17022653 0.0030342937 0.25300017 7762546
-0.16082804 0.0041107535 0.25399587 7959155
-0.15143438 0.0026618242 0.25302038 7959925
-0.14136527 0.0023161769 0.25293759 7959926
-0.130008 0.0019944906 0.25341812 8220021
-0.11994009 0.0031785369 0.25404632 8222324
-0.11055476 0.0031869411 0.254513 8024949
-0.10062699 0.0031737685 0.25497532 7894900
-0.090760708 0.0027435422 0.25445652 7958902
-0.080565996 0.0028498173 0.25381804 7697016
-0.070506774 0.0026467443 0.25406757 7696509
-0.060266402 0.00239259 0.25391772 7566206
-0.05066666 0.0028736591 0.25419256 7697276
-0.040102493 0.0027043223 0.25545719 7960445
-0.030707266 0.0023156404 0.25473627 7894398
-0.020777566 0.0020997524 0.25499213 7829119
-0.010193959 0.0034093261 0.25447682 8026492
-0.00083309138 0.0033621788 0.25430956 7829885
0.0097899772 0.0030050278 0.25462291 7829890
0.019507157 0.0027988553 0.25428334 8092029
0.029382674 0.0026660562 0.25462055 8158342
0.03940925 0.0029015541 0.25475937 8289930
0.04927136 0.0033516884 0.25558481 8354946
0.05961429 0.0039339066 0.25595033 8617609
0.069388337 0.0031942725 0.25590587 8750216
0.079241835 0.0033577681 0.25625026 8552324
0.089330129 0.0040386915 0.25647664 8618380
0.099031977 0.0019395947 0.25652802 8683911
0.10937551 0.0015891194 0.25592157 8946818
0.11940716 0.0025060177 0.25667733 8816264
0.12876309 0.0018543005 0.25628501 9012869
0.13966158 0.001511991 0.25743496 8947583
0.1497301 0.0028781295 0.2569049 9276306
0.15973745 0.0023005605 0.25775516 9275269
0.16936183 0.0011158586 0.25822371 8881032
0.17946632 0.0016745329 0.2573317 9340544
0.18921135 0.0018499494 0.25688344 9341574
0.19920692 0.0011642575 0.25612918 9144959
0.20913917 0.0022596121 0.25779131 9144191
0.21952242 0.0025579929 0.25803158 9407103
0.22974835 0.0012305379 0.25746334 9341053
0.23932192 0.0011244416 0.25831375 9275006
0.24957439 0.0013334155 0.25846726 9406849
0.25973225 0.0013853312 0.25820044 9407353
0.26961294 0.0016014576 0.25887021 9537917
0.27937323 0.0007455945 0.25942701 9341562
0.28908801 0.00025063753 0.25966313 9406586
0.29982063 -0.00022768974 0.26059815 9273449
0.3098537 0.00054109097 0.25932592 9733999
0.31910536 -0.00027221441 0.25955865 9470577
0.32925203 -0.00041306019 0.25934181 9471349
0.33893019 -0.00093561411 0.25942266 9340020
0.34954041 -0.00014704466 0.25965393 9536364
0.35923269 0.00040721893 0.26033884 9601392
0.36922553 -0.0015736222 0.26009727 7893099
0.37838146 -0.0033971071 0.26202667 4474986
0.38584355 -0.0040886402 0.2625066 10533046
0.14389414 0.0042200089 0.25009289 9737875
0.18736739 0.0039731264 0.25118089 10131859
0.20365688 0.003844738 0.25065371 9605259
0.20913772 0.0039758086 0.25105706 9604739
0.21951412 0.0033915639 0.2513307 9803151
0.23000853 0.0032765269 0.25150245 10000537
0.23879573 0.0031802654 0.25164631 9735306
0.25161475 0.0034588575 0.25122997 9735311
0.25658286 0.003320694 0.25143656 9670022
0.27295998 0.003364861 0.25137067 9732235
0.34876105 0.0019755363 0.25344631 8944750
0.35478655 0.0019094944 0.25354496 9339256
-0.3588748 -0.0059151053 0.29579896 3820380
-0.35331103 -0.0052911639 0.29486656 8095354
-0.3575514 -0.0064411163 0.28771541 4673383
-0.35150823 -0.0054368377 0.28732905 7830377
-0.34160671 -0.0044850111 0.2878952 8486763
-0.3309637 -0.004881084 0.28816938 8420462
-0.32141525 -0.0044801831 0.28696331 8288112
-0.31124642 -0.0025192499 0.28764313 8025462
-0.30111516 -0.0015842915 0.28769368 8286825
-0.29298377 -0.0015417933 0.2885457 8353650
-0.26868916 -0.0015502572 0.28712004 8681581
-0.26052922 -0.0014261007 0.28765377 8749422
-0.35846949 -0.00410074 0.27870539 4672353
-0.350519 -0.0046733022 0.2798878 7962985
-0.34113818 -0.0041399598 0.27954555 8290921
-0.3315233 -0.0045208335 0.28047702 8619388
-0.32052574 -0.0037943125 0.2799252 8946811
-0.31090972 -0.0014449358 0.27940425 8487295
-0.30100867 -0.0017351508 0.27996528 8486781
-0.29086453 -0.00075888634 0.2805649 8486776
-0.28076515 0.00053936243 0.2806471 8421499
-0.27090842 0.00026106834 0.28106791 8749432
-0.26129153 0.0010714531 0.28169125 8420723
-0.25097647 0.0016761422 0.28170314 8551276
-0.24101141 0.0019530058 0.28125679 8090994
-0.23093453 0.0016239285 0.28061265 7959153
-0.22137038 0.0020262003 0.28033847 7763060
-0.21108304 0.0029397607 0.28143328 7763316
-0.20139627 0.0025101304 0.28177258 7959409
-0.19114493 0.0021810532 0.28245789 8092017
-0.18054669 0.0018155575 0.28137216 7829108
-0.1706949 0.0017009377 0.28325996 8221551
-0.16252314 0.0023382902 0.2821191 7958378
-0.14952676 0.0028133392 0.28215855 7762026
-0.14079136 0.001547277 0.28218919 7892843
-0.13096832 0.0013881922 0.28248993 7893100
-0.12049101 0.002894938 0.28230914 7496044
-0.11095589 0.0020008683 0.28231221 7629165
-0.10100298 0.0018087029 0.28232267 7761013
-0.091437683 0.0016964674 0.28246546 7760748
-0.080906816 0.0020241737 0.28273833 7761011
-0.071011156 0.0012534857 0.28311068 7563629
-0.060157277 0.0026768446 0.28296188 7759204
-0.050323509 0.0024774075 0.2832599 8023146
-0.04145183 0.0023176074 0.282985 7959407
-0.030055054 0.001485765 0.28384244 7761524
-0.02106211 0.0014126897 0.28413132 7960179
-0.011778601 0.001733005 0.28401247 8156789
0.01884478 0.0017623901 0.2843281 8024696
0.026236836 0.0018526912 0.28419331 8156027
0.059319943 0.0014902353 0.28473482 7961218
0.068798803 0.0011009574 0.28531641 7961729
0.078961916 0.00064736605 0.28573707 8028805
0.088679805 -0.00018560886 0.28648135 8486016
0.097161055 0.00073307753 0.2858659 8553091
0.10804195 0.00081372261 0.28574556 8028031
0.11856178 0.00084114075 0.28570455 7894660
0.16318552 0.00035226345 0.28643498 7695481
0.16857114 0.00029325485 0.28652313 7957624
0.17395675 0.00023424625 0.28661129 8351615
0.1878055 8.2552433e-05 0.286838 8353401
0.19979562 -0.0003913641 0.28754592 8352884
0.23473735 -0.00043165684 0.28760621 8220540
0.26320419 -0.00074350834 0.28807217 8942708
0.26915926 -0.0010228157 0.28848946 8681597
0.27756587 -0.0009008646 0.28830728 8681075
0.28551605 -0.00098794699 0.2884374 9203822
0.30012071 -0.0015285015 0.28924501 8944233
0.30756643 -0.0013722777 0.28901157 9208690
0.33032209 -0.0022572875 0.29033372 8945505
0.33398667 -0.0015190244 0.28923082 9143381
0.34936911 -0.0018302202 0.28969583 9402720
0.35887402 -0.0026128888 0.29066509 8943466
0.36847079 -0.0027680993 0.29085702 7431020
0.37911162 -0.0037302971 0.29080871 4808317
0.38889322 -0.0055121779 0.29072967 11187117
-0.30989775 -0.00051528215 0.27334842 8026226
-0.28856856 -0.00074899197 0.27369756 8354678
-0.28048193 -0.00049841404 0.27332333 7962243
-0.27162108 0.00044870377 0.27317744 8356730
-0.26050299 0.00081455708 0.27392995 8421484
-0.25099564 0.0008135438 0.27307531 8223851
-0.24070181 0.0022401214 0.27321291 8092003
-0.23176272 0.002245903 0.27294701 8222308
-0.22046305 0.0020897388 0.27336916 7697007
-0.2108936 0.0030247569 0.27341458 7828079
-0.20054638 0.0029912591 0.27335313 7893868
-0.19104898 0.0030468106 0.27345777 7761775
-0.18106519 0.0023770928 0.27398309 7892331
-0.17111242 0.0031251311 0.27371809 7762547
-0.16082896 0.0031610727 0.2740975 7630956
-0.15053572 0.0034314394 0.27456164 7630699
-0.14095244 0.0037293434 0.27498904 7893868
-0.13097158 0.0039811134 0.27532724 7827813
-0.12080712 0.0033925176 0.27527678 7565414
-0.1111455 0.0035232902 0.27504176 7368297
-0.10085727 0.0025569201 0.27550969 7629679
-0.090976775 0.0021445155 0.27462453 7697520
-0.080876186 0.0029408932 0.27572206 7565940
-0.071123801 0.0024670362 0.27520517 7368812
-0.060892519 0.0026172996 0.2757934 7499376
-0.051038221 0.0020076632 0.27557218 7696247
-0.041014668 0.0019258261 0.27584657 7959663
-0.031223966 0.0011161566 0.27602482 7893872
-0.021322751 0.00039166212 0.27701047 7959151
-0.011067495 0.0022477508 0.2772907 7828341
-0.0010894767 0.0027639866 0.2771256 7959153
0.0090145441 0.0031908751 0.27730399 7829375
0.019025549 0.0034244657 0.27848905 7697528
0.029257048 0.0030656457 0.27826089 7698811
0.038929667 0.0037828684 0.27829671 8091007
0.049429897 0.0024104118 0.27788821 8027009
0.058978524 0.0019932389 0.27776584 8158079
0.068869613 0.0026016831 0.27835023 8092799
0.078767776 0.0016097426 0.27848822 8093055
0.089022219 0.0017235279 0.27899265 8224382
0.099138923 0.0029693842 0.27984893 8486528
0.10885343 0.0023242235 0.27950227 8551292
0.11905162 0.0020936728 0.27920035 8551550
0.1287429 0.0028762817 0.27906823 8815483
0.13882054 0.0030113459 0.27939519 9275260
0.14856744 0.0016463995 0.27984354 9077123
0.15888688 0.002089262 0.28015211 9077895
0.16894756 0.0012931824 0.2803328 9078139
0.17892905 0.0014282465 0.27951208 9143932
0.18884516 0.00072383881 0.28033641 8946550
0.19897811 0.0018590093 0.28125733 9144185
0.20896684 0.0022371411 0.28085291 9013370
0.21923643 0.0022269487 0.28101024 9013128
0.22903962 0.0019880533 0.28164583 9014141
0.23856805 0.0010837913 0.28150108 9276027
0.24881738 0.0011132956 0.28110296 9209467
0.2590673 0.0013061166 0.28221312 9209973
0.26890135 0.00093072653 0.28245428 9340794
0.27869934 0.00061136484 0.28261206 9406838
0.28867579 0.00081366301 0.28270939 9340285
0.29870114 0.00079637766 0.28311369 9273977
0.30872217 0.00081080198 0.28311312 9077626
0.31869441 0.0011600852 0.28343034 9273974
0.32843 0.00025749207 0.28321517 9077614
0.33885166 -0.00042587519 0.28267285 9207912
0.3488504 -0.0016490817 0.28296781 9141100
0.35913604 -0.0015414953 0.28283817 9207404
0.36873266 -0.0019577146 0.28262675 7694953
0.37888005 -0.0030404925 0.28276277 4281459
0.38679695 -0.0054825544 0.28206408 10793641
-0.17028616 0.0038892627 0.26676762 7894127
-0.15907341 0.0043194294 0.26792303 7894384
-0.15201126 0.0047800541 0.26783404 7828338
-0.13981442 0.0042926073 0.2685622 8222568
-0.13054146 0.0040436387 0.26811025 8157802
-0.12227295 0.0039438605 0.26788479 8092527
-0.10898886 0.0037706494 0.26874283 7829355
-0.10211728 0.0039074421 0.26853839 8158321
-0.089096054 0.0032420754 0.26773477 8026998
-0.082153685 0.0037301779 0.2679044 8092787
-0.070117682 0.0034385324 0.26827103 7895408
-0.064021319 0.0031673312 0.26928449 7960175
-0.047643285 0.0025456548 0.26877517 8552821
-0.0091429232 0.0026807785 0.26977178 8027005
-0.001010643 0.0038658977 0.26834324 8355709
0.0094273258 0.0026887655 0.26931846 8224136
0.019540839 0.0033546686 0.26996344 8026500
0.029332906 0.0027772784 0.27040678 8224641
0.039468948 0.0030627847 0.2704629 8420737
0.048664398 0.0026754141 0.26948002 8814974
0.059439238 0.0017492771 0.26996508 8551811
0.069033988 0.0021243095 0.27012387 8684168
0.080656253 0.001755178 0.27040583 8618363
0.089234963 0.0026477575 0.26982078 8750977
0.099406719 0.0029388666 0.27106422 8685448
0.10876887 0.0023823977 0.27141601 9012613
0.11899503 0.0011623502 0.27109888 8946559
0.12937148 0.0021051764 0.2713092 9210497
0.1395871 0.0025393963 0.2718266 9605000
0.14922914 0.0021219254 0.271144 9735302
0.15896977 0.0021235347 0.27110341 9802377
0.16911376 0.0020854473 0.27169439 9671559
0.17938145 0.0012419224 0.27126253 9605245
0.1901522 0.001293838 0.27107698 9735289
0.19892536 0.0020300746 0.27242181 9537916
0.20916507 0.0013210177 0.27206561 9407871
0.21937315 0.0022730231 0.27265808 9735304
0.22931007 0.0012965202 0.27226532 9538683
0.23884526 0.0013195276 0.27194202 9472131
0.24924718 0.0008546114 0.27322799 9406334
0.25987861 0.0015254021 0.27310884 9472893
0.26952007 0.00054997206 0.27307487 9406585
0.27901635 0.00062692165 0.27299002 9405567
0.28891546 0.00098782778 0.27319983 9274233
0.2987996 0.00018376112 0.27390179 9340535
0.3088263 3.2782555e-05 0.27399424 9668464
0.31834075 0.00027489662 0.27555189 9472371
0.32937095 0.00019019842 0.27409235 9208700
0.33893439 -8.8393688e-05 0.27414846 9207673
0.34964535 -0.001119554 0.27497044 9273456
0.35780364 -0.0010208488 0.27522749 9405039
0.36989084 -0.001840353 0.27532825 6184820
0.37774011 -0.0012670159 0.2744717 4476016
-0.35916689 -0.0063520074 0.31016055 4477294
-0.35125801 -0.0055548549 0.31006163 8025445
-0.34161517 -0.0040076971 0.31087291 8222308
-0.33220538 -0.0032411218 0.30938292 7959893
-0.32103437 -0.0025086999 0.31018621 7893347
-0.31143096 -0.0031380653 0.31142631 7499880
-0.30495176 -0.0027131438 0.31079143 8156013
-0.35864171 -0.0050086379 0.30037773 4477289
-0.35112244 -0.004216373 0.30032688 8420973
-0.34132493 -0.0033131838 0.30072406 8749672
-0.33130834 -0.0024120212 0.30222875 8683111
-0.32153055 -0.0013692379 0.30328178 8684134
-0.31156099 -0.00041741133 0.30368203 8685158
-0.30171871 0.00032573938 0.30426207 8684908
-0.29143581 0.00065755844 0.30359805 9078131
-0.28119954 -4.774332e-05 0.30370769 9144183
-0.27152413 0.0005685091 0.30450547 9208949
-0.26166052 0.00049823523 0.30332571 8948343
-0.25310415 0.0018153191 0.30299821 9012598
-0.23996347 0.0020548105 0.30366769 9537398
-0.23087116 0.001901865 0.30389637 8816248
-0.2220903 0.0019581914 0.30381209 8946284
-0.21136849 0.0019155145 0.30327654 8880736
-0.20189457 0.0019848943 0.30377215 8882031
-0.19378413 0.0018960238 0.30390492 9012594
-0.17923722 0.00144732 0.30457526 9275251
-0.17052755 0.001108706 0.30431086 8881530
-0.16152932 0.0010086298 0.30523092 8683893
-0.15324739 0.0010179877 0.30521682 8552046
-0.12671715 0.0011612177 0.30500272 8750702
-0.12035654 0.0007019043 0.30434057 8289408
-0.11190003 0.00099891424 0.30524528 8092546
-0.10566124 0.00093054771 0.30534738 8424308
-0.08850456 0.00074255466 0.30562821 8814719
-0.070568047 0.00054609776 0.30592182 8817772
-0.065888949 0.00049477816 0.30599841 9406334
-0.049252175 0.00031256676 0.30627072 9341303
-0.044053186 0.00025558472 0.30635583 9142647
-0.031579446 1.0490417e-05 0.30672213 8750462
-0.021998735 -0.00058680773 0.30761462 8619132
-0.015214141 -0.00049430132 0.30747622 8683900
0.38330394 -0.0044264793 0.31335118 9149855
0.388412 -0.0050023794 0.31310534 11253941
-0.3419629 -0.002476871 0.29425767 9144950
-0.33099005 -0.0016621351 0.29560897 8816755
-0.32054004 -0.0007892251 0.29486296 8618876
-0.31093997 -0.00036984682 0.29484358 8685693
-0.30102295 -2.4735928e-05 0.29463896 8881272
-0.29084033 0.00091779232 0.29409346 8683896
-0.2813338 0.0011261106 0.29356411 8618103
-0.27165997 0.001473248 0.29434845 8684153
-0.26139116 0.0009573102 0.2943531 8881020
-0.25134236 0.0017384291 0.2950429 8748406
-0.24147268 0.0024200082 0.29569295 8618615
-0.23109478 0.0029746294 0.29622534 8552568
-0.22107421 0.0034694672 0.29663694 8420725
-0.21100818 0.0026714206 0.29615346 8420465
-0.20121421 0.0030670166 0.29711446 8551800
-0.19147138 0.0032642484 0.29715028 8486007
-0.18145791 0.002727747 0.29702601 8551792
-0.17163739 0.0021922588 0.29692101 8288118
-0.16154325 0.0024785399 0.29723391 8288883
-0.15135479 0.0024014115 0.29789442 8353643
-0.14134979 0.0029273629 0.29730731 8025970
-0.13125412 0.0025972724 0.29810035 8353906
-0.12124164 0.0016983747 0.29746634 8090739
-0.11129789 0.0016435385 0.29817683 8222843
-0.10131285 0.0023906231 0.29867139 8289146
-0.091132805 0.002150774 0.29866648 8157819
-0.081701219 0.0014925003 0.29862717 8419188
-0.07126683 0.0010898709 0.29820552 8485492
-0.061681971 0.0021315813 0.29923052 8223096
-0.051312044 0.0019352436 0.29923275 8354160
-0.041447181 0.0017148852 0.29964355 8354424
-0.031325072 0.0011965036 0.29965249 8354936
-0.021219533 0.0009740591 0.29977635 8551548
-0.011203015 0.0013945699 0.29926035 8617340
-0.0014615232 0.0016826987 0.29963642 8684925
0.0083843227 0.0019595027 0.29967493 8487550
0.018216677 0.002274394 0.30007091 8817276
0.028480327 0.0026736259 0.2991477 8816001
0.039021414 0.0019595623 0.30021423 9209990
0.048986003 0.0025416613 0.30035129 9210500
0.058504768 0.0022192597 0.30057034 9472900
0.068975791 0.003300786 0.30071178 9342330
0.078665182 0.0019227266 0.30091178 9209724
0.088977031 0.0013659 0.30227011 8881278
0.098428033 0.00028014183 0.30244699 9012347
0.1080659 0.00076514482 0.30189919 9209469
0.11818609 0.0032712817 0.30117619 9209467
0.12965085 0.0022893548 0.30109149 9669242
0.13904612 0.00056284666 0.30117124 9538175
0.14811353 0.00074863434 0.30208346 9406590
0.15865549 0.00073331594 0.30246955 9734268
0.16868579 -0.00060713291 0.3014023 9407102
0.179078 0.0003157258 0.30240414 9603960
0.18822813 0.0007520318 0.30233112 9079170
0.19838247 0.0018374324 0.30274191 9407870
0.20880443 0.00096988678 0.30310559 9604478
0.21822509 -0.00020194054 0.30331987 9472123
0.22710659 0.0014124513 0.30260494 9142397
0.23965061 0.0023964047 0.30255827 9207416
0.24919647 0.0010213852 0.30298597 9078146
0.25895 0.00036364794 0.30406383 9077114
0.26893377 -3.8981438e-05 0.30468088 9406847
0.27811635 0.00019884109 0.30450466 9143414
0.28890133 0.000395298 0.30448756 9208702
0.29811022 -0.00018310547 0.30444318 9012598
0.30806303 0.00027477741 0.30363059 9275238
0.31941128 0.001209259 0.30433193 9274475
0.32802746 2.1338463e-05 0.30512387 9274227
0.33940116 0.00035059452 0.30441618 9077114
0.34864187 -0.0016448498 0.30520642 9208175
0.35853171 -0.0027894378 0.3059788 9076587
0.36867175 -0.0029503107 0.30633911 7103854
0.37882313 -0.0023218989 0.30665624 4214895
0.38769552 -0.0039518476 0.30576998 10597306
-0.28907657 0.002093792 0.28742889 8420987
-0.28239211 0.0020205379 0.28753829 8552822
-0.257696 0.0021790862 0.2873013 9472369
-0.25154096 0.0016824603 0.28804323 9208420
-0.24095641 0.0022448301 0.28780243 9472374
-0.23116307 0.0024189949 0.28713247 8422253
-0.22091915 0.0034980178 0.28712872 8486518
-0.21118468 0.0038887858 0.28719211 8551530
-0.20113117 0.0030685067 0.28768483 8421230
-0.19109653 0.0028302073 0.28794667 8356204
-0.18141991 0.0033061504 0.28801468 8223861
-0.17152736 0.0029313564 0.28900272 8553073
-0.16033445 0.0042991042 0.28772956 8157547
-0.15149699 0.0040223598 0.28735629 8091500
-0.14158086 0.0038512945 0.28869855 8158326
-0.13115524 0.0035386682 0.28873718 8289653
-0.12130728 0.003744483 0.28822082 7959665
-0.11117914 0.0033849478 0.28824946 7959666
-0.10091545 0.0029925704 0.28855801 8091509
-0.090924323 0.0042274594 0.28865832 8025461
-0.081236348 0.0029209852 0.28862864 8157055
-0.071015872 0.0024078488 0.28916344 8090998
-0.061178852 0.0030575991 0.28855717 7960185
-0.051227573 0.0030192733 0.28883263 8222067
-0.040985953 0.0030733347 0.28886169 7960180
-0.031312462 0.003008604 0.28965777 8157564
-0.020903783 0.0019190311 0.28987315 8288893
-0.010574909 0.0026746988 0.28960302 8419198
-0.00080260349 0.0040708184 0.2900553 8222843
0.0085421586 0.0041380525 0.29015067 8419706
0.018517952 0.003878355 0.29089627 8419454
0.028689353 0.003241539 0.29048008 8419453
0.038423866 0.0031067729 0.29039285 8354175
0.048801925 0.0038003922 0.29120994 8289159
0.058771282 0.0031887889 0.29115272 8289159
0.068785667 0.0025550127 0.29208684 8486278
0.078705348 0.0017545223 0.2923871 8552838
0.088756308 0.0011078715 0.29330343 8552583
0.098972239 0.0018466711 0.29214647 8617607
0.10883662 0.002414763 0.29266238 8420742
0.11875997 0.0023018122 0.29192448 8748418
0.12885092 0.0028361082 0.29285032 8880771
0.13876799 0.0018805265 0.29118294 8750468
0.149033 0.0021206141 0.29253519 8749952
0.15879372 0.0023258328 0.29258576 8682881
0.16873674 0.0023063421 0.29321504 8814465
0.17901739 0.0026057363 0.29398334 8880257
0.18900593 0.0024580956 0.29370826 9011068
0.19873054 0.0011913776 0.2935338 8814205
0.20842262 0.0017233491 0.29414585 8747138
0.21879983 0.0022801161 0.29430687 8419967
0.22878775 0.0013414621 0.29359356 8223097
0.23895743 0.0017319918 0.2944631 8353904
0.2489076 0.0025849938 0.29551685 8223350
0.25871515 0.0014436245 0.29433602 8550776
0.26880246 0.00064796209 0.2953819 8747388
0.27902681 0.00068771839 0.2948083 8747637
0.28894347 0.00058305264 0.29497126 8681329
0.29846734 0.00072109699 0.29572934 8680292
0.30873004 0.0001398325 0.29589778 8745323
0.31882575 0.0012910366 0.2957426 8680299
0.32780433 -0.00076758862 0.2958467 7893092
0.33877987 -0.00010579824 0.29574895 8090221
0.34857237 0.00021785498 0.29613844 8482925
0.35816607 -0.001411736 0.2967259 7827052
0.36877051 -0.00098347664 0.29712 6907244
0.37870723 -0.0016738176 0.29783344 3951474
0.38820884 -0.0030244589 0.29777288 10136753
-0.0037477151 0.0049760938 0.28312248 8749178
0.04156132 0.005001545 0.28359807 7696766
0.046130292 0.0053759217 0.28396338 7368833
0.059497166 0.0042831898 0.28415772 8223106
0.12976809 0.0039633512 0.2856161 7893107
0.13921252 0.0038229227 0.28512204 6908287
0.15205064 0.003269136 0.28567269 7169410
0.15822087 0.0032014847 0.28577366 7300474
0.18064862 0.0037524104 0.2867485 8288893
0.18498476 0.0036271214 0.28753498 8419451
0.20372632 0.002703011 0.28651857 8223350
0.21009479 0.0036460757 0.2876265 8354420
0.21793172 0.0032263994 0.28711972 8617337
0.24036208 0.0023016334 0.28711826 9539445
0.24935298 0.0034666657 0.2882542 8944243
0.25534439 0.0024968982 0.28802511 9208954
0.32126632 0.0018465519 0.28923649 9010554
0.33947146 0.0012158155 0.28874058 8879455
-0.36002028 -0.0045040846 0.33144569 4938354
-0.35211194 -0.0052934289 0.33262521 8418150
-0.36047956 -0.0024872422 0.32499287 4872047
-0.35197631 -0.0037875175 0.32490638 8815728
-0.3421129 -0.0025618076 0.32503554 8684405
-0.33153248 -0.0021578074 0.32412648 9010801
-0.32185304 -0.0016568899 0.32463992 8683117
-0.31198928 -0.0011419654 0.32455814 8420978
-0.3033416 -0.00079637766 0.32398823 8484474
-0.29052073 0.0001809597 0.32444581 7695476
-0.28290048 -0.00019538403 0.32500803 7957879
-0.11764853 -0.0017130375 0.32727551 8355177
-0.11449105 -0.0017476082 0.32732722 8420457
-0.037132718 -0.0025951266 0.32859349 8815727
-0.031614892 -0.0028752089 0.32901195 8157556
-0.026081527 -0.0027162433 0.32877436 8090479
-0.35937524 -0.0035721064 0.31806749 5134705
-0.35242319 -0.0037205815 0.31699857 8420714
-0.34074441 -0.0041030049 0.31666338 8551789
-0.33139849 -0.0027663112 0.31539387 8420204
-0.32206663 -0.00257653 0.31609285 8419173
-0.31184509 -0.0019322038 0.31750762 8290418
-0.3009606 -0.00043803453 0.31642109 8288890
-0.29162627 0.00035864115 0.31691742 8223346
-0.28170839 0.00077575445 0.3170121 7961200
-0.27172399 0.0024186969 0.31593376 8090475
-0.26169598 0.0033891797 0.31706336 8154996
-0.2514748 0.0029865503 0.31840184 8354665
-0.24180073 0.0026426315 0.31892154 7895655
-0.23190819 0.0024887919 0.31798184 7893358
-0.2217873 0.0028714538 0.31919315 8155764
-0.21236897 0.0037504435 0.31810611 7959921
-0.20159073 0.0031946898 0.31850466 8158317
-0.19169702 0.0025475025 0.31981146 8551273
-0.18185158 0.0022252202 0.31991658 8222319
-0.17202234 0.0032485127 0.31914368 8025202
-0.16190605 0.0024966002 0.31954783 8023924
-0.15189894 0.0026575327 0.31933305 8090477
-0.14155535 0.00236696 0.31971499 8024945
-0.1318125 0.0025269985 0.32004184 8157042
-0.12088905 0.0016016364 0.32122472 8221286
-0.11179925 0.00034433603 0.32154742 7959402
-0.10235532 0.0019966364 0.32075259 7566189
-0.0910789 0.0025881529 0.31965098 7827317
-0.081570417 0.0012203455 0.3204959 7762031
-0.071625493 0.000657022 0.32167971 7565675
-0.061543409 0.00069218874 0.32183284 8024430
-0.051884398 0.00057411194 0.32122159 8023925
-0.041235264 0.00012457371 0.32207423 7761516
-0.031441338 -0.0001770854 0.32301158 7827314
-0.022358341 -8.3267689e-05 0.32254335 8156266
-0.011972627 0.00054556131 0.32123762 8287338
-0.0013194324 0.0010427833 0.32127479 8025197
0.0080971112 0.0014739037 0.32083577 8090998
0.018642494 0.0016654134 0.32175913 8157561
0.028257167 0.0012103319 0.32209074 8354427
0.037506852 0.0013020039 0.32171318 8486270
0.047953535 0.0020814538 0.32160655 8551546
0.058768954 0.0017349124 0.32212436 8616827
0.06742733 0.0020572543 0.32164258 8683121
0.079906635 0.002125442 0.32154056 8487292
0.085690185 0.0019156933 0.32185397 8815484
0.098779202 0.00074976683 0.32296139 8486779
0.10817423 0.00042492151 0.32336244 8618616
0.11826825 0.0013110638 0.32275751 8881773
0.1280479 0.0013052821 0.32276616 9143406
0.14116077 0.0014251471 0.32258701 9472376
0.14857152 0.0010804534 0.32310212 9145983
0.15726237 0.0012047291 0.32291615 9147261
0.16961315 0.000225842 0.32437915 9276027
0.17810141 -0.00042462349 0.32427216 9275004
0.18773286 0.00055003166 0.32389456 9276035
0.19673248 0.00081628561 0.32349664 8882300
0.20846207 0.0007379055 0.32361361 9144183
0.21489424 0.00079298019 0.32353139 9406567
0.231471 0.00061136484 0.32380274 9601895
0.24030574 0.00033891201 0.3242099 9406055
0.24771959 8.1956387e-05 0.32459375 9734765
0.2583096 0.00031727552 0.32424206 9733481
0.26857144 0.00020486116 0.32441002 9732704
0.27871242 -0.00086635351 0.32549706 9536369
0.28776509 -0.0012856126 0.32595217 9537135
0.29731372 -0.00048649311 0.32544303 9668725
0.3151443 -0.0003053546 0.32517236 9932389
0.3302128 -0.00095850229 0.32614818 9536629
0.33584589 -0.0010812283 0.32633156 9931377
0.35144758 -0.00092273951 0.32609475 10258037
0.35815722 -0.00099623203 0.32620457 10127474
0.36816514 -0.001588881 0.32709038 8220772
0.37913376 -0.0024119616 0.32763502 4217460
0.38701525 -0.0044000149 0.32753819 11186607
-0.31011081 0.00072520971 0.30924979 8091493
-0.29760277 0.00058817863 0.30945453 8094584
-0.29203677 0.00072056055 0.30925679 8222835
-0.28151658 0.00053626299 0.30953217 8354664
-0.26994807 0.00062590837 0.31059679 8288628
-0.26112014 0.0019109249 0.31047443 8222326
-0.25102672 0.0028401613 0.30906913 8354923
-0.24132587 0.0022040606 0.30838826 8485227
-0.2313291 0.0019586682 0.30984259 8288366
-0.2213719 0.0027833581 0.30958086 8353383
-0.21157567 0.0034737587 0.30979136 8025450
-0.20145395 0.0031433702 0.30970544 8092016
-0.19144501 0.0032216907 0.30935007 8354926
-0.18137471 0.0022181273 0.31014168 8419702
-0.17166154 0.0032969713 0.31136221 8288883
-0.1619662 0.0029742122 0.31164277 8288111
-0.15149571 0.0026159286 0.31101906 8288616
-0.14188474 0.0019910932 0.31003425 8354411
-0.13194035 0.0019508004 0.31007609 8748392
-0.1220439 0.003554821 0.31184471 8223605
-0.11145874 0.0013138652 0.31097656 8420466
-0.10118748 0.0024955273 0.31134441 8223856
-0.091641814 0.0020247698 0.31126317 8552050
-0.081626609 0.0015998483 0.31083524 8552302
-0.071708672 0.00057429075 0.31096557 8420714
-0.061473832 0.0011861324 0.31140739 8682865
-0.051542442 0.0010344386 0.31182989 8421495
-0.041677937 0.00063639879 0.31198931 8551540
-0.031693898 0.00021052361 0.31235582 8486777
-0.021406846 -0.00035780668 0.31322315 8749429
-0.011097269 0.00034338236 0.31237745 8683894
-0.0012589275 0.0013387799 0.31261387 8684920
0.0081551131 0.0021396875 0.3131296 8684152
0.018349074 0.0014964342 0.31308725 8750715
0.028568843 0.0020054579 0.31350133 9012606
0.038434889 0.0013154149 0.31321454 8947584
0.048589196 0.001368165 0.31388241 9013371
0.0583851 0.0014973879 0.31391802 9078655
0.06846571 0.001137197 0.3138783 9144454
0.078756273 0.0021564364 0.31472144 9078906
0.088419542 0.0019512773 0.31460959 9078393
0.098379403 0.00081300735 0.31447366 9013376
0.10847139 0.00077080727 0.31478405 9209214
0.11832569 0.0019770861 0.31523973 9276026
0.12817806 0.0029261112 0.31574556 9275008
0.13865474 0.0025328994 0.31588063 9275012
0.14818157 0.0016073585 0.3157084 9407364
0.15829675 0.0026614666 0.31634474 9472640
0.16817968 0.0015323162 0.31643358 9538430
0.17831896 0.00098127127 0.31598073 9472386
0.18860419 0.0021433234 0.31691474 9406850
0.19860478 0.0029145479 0.31758299 9603203
0.20839484 0.0023591518 0.31718683 9603452
0.21826015 0.0016852021 0.3171649 9538951
0.22852127 0.0018063784 0.31768632 9669771
0.23861761 0.0015630126 0.31761259 9471610
0.24833386 0.00017052889 0.31751531 9735030
0.25852421 0.0010333061 0.31769678 9800059
0.26865873 0.00061517954 0.31775355 9406332
0.27856863 -0.00060725212 0.31779259 9471872
0.28877395 -0.00078701973 0.31799734 9603448
0.29823151 -0.0013402104 0.3175495 9603702
0.30841002 0.00017219782 0.31846571 9733753
0.31828094 -0.0003361702 0.31819397 9406075
0.32852837 0.0003836751 0.31884921 9406074
0.33819002 0.0012766123 0.31929475 9405046
0.34861088 0.00034183264 0.31933144 9274228
0.35847452 -0.00093233585 0.31907091 9208173
0.36850721 -0.0017147064 0.3188878 7301481
0.37823603 -0.0026923418 0.31920242 3886691
0.38769844 -0.0040405393 0.31964865 10990259
0.39385933 -0.0018877387 0.32034519 11514038
-0.1418491 0.0041017532 0.30420506 8683122
-0.13559507 0.0040332079 0.30430743 8815216
-0.094162174 0.0035792589 0.30498564 8686471
-0.078527108 0.0034079552 0.30524158 8552557
-0.073836587 0.003356576 0.30531836 8488048
-0.058201514 0.0031852722 0.30557427 9078661
-0.055074509 0.0031510592 0.30562547 8946568
-0.010754634 0.0032454729 0.30548438 8419456
-8.6579639e-05 0.0036580563 0.30569777 8157311
0.0079676919 0.0032891035 0.30597237 8485754
0.018920057 0.0029384494 0.30594304 8420732
0.028873259 0.0033498406 0.30532837 8288895
0.038441643 0.0026484728 0.30637631 8748416
0.048697717 0.0028329492 0.30610073 8485760
0.058356445 0.0026043057 0.30644235 8353921
0.06828554 0.0028868318 0.30601984 8289404
0.078485951 0.0025109053 0.30682167 8354946
0.087020665 0.0019205213 0.30746397 8027522
0.10024405 0.0017393827 0.30773458 8486006
0.10990004 0.0020394921 0.30728605 8551288
0.11926924 0.0030036569 0.30634102 8617600
0.12823012 0.0029174089 0.30672336 8813443
0.13812849 0.0019751191 0.30780542 8289406
0.14931133 0.0015938878 0.30822855 8485759
0.15809131 0.0014976859 0.30837229 8616829
0.16915281 0.0012744069 0.30842927 9142127
0.17823729 0.0015297532 0.30827263 9078134
0.18852991 0.0017906427 0.30822584 8814976
0.19861016 0.0021311045 0.30834785 9142651
0.20868872 0.0021910667 0.30905727 9339248
0.21893997 0.0009252429 0.30943048 9143933
0.22965126 0.0022723079 0.30800343 9275774
0.23803948 0.0019617677 0.30762652 9471607
0.24814762 0.0018502474 0.30876729 9144700
0.25790879 0.00066280365 0.30976602 9472119
0.26762572 8.4042549e-05 0.31020781 10062965
0.27916941 0.00031226873 0.31010664 9538418
0.2877042 0.0010033846 0.30973309 9274228
0.29894647 0.00031524897 0.3104617 9536880
0.30893603 0.0011486411 0.30958506 9338996
0.31826445 0.0006030798 0.30955163 9338738
0.32932654 0.00016653538 0.31048399 9404781
0.33803281 0.00093668699 0.31003994 9273970
0.34782061 6.3061714e-05 0.31118533 9009778
0.35690939 -0.0013626218 0.31236917 9206380
0.36394516 -0.0014396906 0.31248432 9208172
0.38004017 -0.0012431741 0.31219071 3885159
-0.36096027 -0.0037780404 0.34720364 4872554
-0.3531892 -0.0042293072 0.34634984 9013613
-0.34609786 -0.0032164454 0.345103 8948597
-0.33238959 -0.0017651916 0.34533191 9076826
-0.31440663 -0.0017399192 0.34529418 8877953
-0.360111 -0.0038608909 0.33692691 5528685
-0.35134515 -0.0036016107 0.3385725 8683376
-0.3422071 -0.0020976663 0.33766329 8355443
-0.33188277 -0.0022028685 0.33787468 8617070
-0.32243744 -0.00090843439 0.33848703 8224376
-0.3118214 0.00026673079 0.33976933 8945785
-0.30204794 -0.00014072657 0.33944219 8683384
-0.29323745 -3.2365322e-05 0.33839819 8420462
-0.28228366 0.0017622113 0.33812541 8551032
-0.2716836 0.0016881227 0.33837432 8683381
-0.2626445 0.0013800263 0.33905935 8748403
-0.25268987 0.0020935535 0.33848801 8354412
-0.24131498 0.0023896098 0.33912444 8156281
-0.23337616 0.0025289059 0.33891624 8486511
-0.22378944 0.0024238825 0.33907315 8223346
-0.20956284 0.002445817 0.33904037 8681329
-0.20176226 0.0017870665 0.3396976 8549236
-0.19220693 0.0012792945 0.33995351 8352884
-0.18234316 0.0013930202 0.34001404 8286071
-0.17425129 0.0014122725 0.34007108 8352117
-0.15994042 0.00072199106 0.34053725 8416618
-0.15172812 0.00046026707 0.34120771 8286826
-0.14347114 0.00064849854 0.34074479 8221287
-0.13029243 0.0010217428 0.34116817 8156009
-0.12178277 -0.00062137842 0.34166136 8221300
-0.11227135 -9.226799e-05 0.34188601 7631983
-0.10331701 0.0004503727 0.34176487 7827822
-0.091455661 0.00062638521 0.3414591 7565685
-0.081441499 -0.0011147857 0.34208912 7565176
-0.073301531 -0.00048875809 0.34192663 7892595
-0.062133271 0.00053429604 0.34189641 8418671
-0.05184073 -0.00027918816 0.3427121 8287864
-0.041792773 -0.0016554594 0.34337011 8025457
-0.032891102 -0.0011281967 0.34270206 8354931
-0.022229847 -0.0010821819 0.34296292 8682868
-0.01275445 -0.00060981512 0.34315604 8683138
-0.0025725153 -0.00065177679 0.34366831 8617851
0.0037414806 0.00010889769 0.34253192 9077877
0.03649608 -0.00024998188 0.34306806 8948876
0.058420371 -0.00090050697 0.34404001 9210745
0.066055112 -0.00057381392 0.34355193 9412492
0.088424094 -0.00081890821 0.34391809 9343361
0.23220906 -0.0028387308 0.34693584 9535356
0.23380683 -0.0028562546 0.34696198 9339004
0.25139821 -0.002604425 0.34658578 9598579
0.25778934 -0.0026744008 0.34669042 9334347
0.28734839 -0.0029982924 0.34717423 8415561
0.32729304 -0.0034359097 0.34782809 8683628
0.36643875 -0.0038647652 0.34846887 8419178
0.37922105 -0.0040048361 0.34867808 6320003
0.38748094 -0.0056169033 0.3508749 11384498
-0.34020865 -0.0014105439 0.33093271 8879466
-0.33147186 -0.0011372566 0.3305642 9077096
-0.32115799 -0.00053417683 0.33150712 8750443
-0.3119767 0.00040745735 0.33171368 8881778
-0.30166179 0.0010799766 0.33082244 8749684
-0.29203582 0.0015435815 0.33035356 8618097
-0.28157339 0.0018389821 0.33038566 8750199
-0.2714622 0.0015740991 0.33064252 8618101
-0.26170453 0.0024703741 0.33118653 8617581
-0.25176761 0.00254637 0.33135605 8157807
-0.2420696 0.0030303597 0.33169478 8223347
-0.23189794 0.0026996136 0.33196044 8486263
-0.22177476 0.0025777817 0.33189163 8158068
-0.21184653 0.0029918551 0.33214527 8289393
-0.20181692 0.0029156804 0.33278853 8484986
-0.19166847 0.0026947856 0.33264768 8420724
-0.18168341 0.0021836162 0.33248597 8288372
-0.17196587 0.0028309226 0.33327994 8354167
-0.16221736 0.0028758049 0.33346409 8420720
-0.15202786 0.0018393993 0.33315387 8485747
-0.1419386 0.0018333793 0.33317241 8288368
-0.13221705 0.0020354986 0.33366022 8222062
-0.12206203 0.0011897087 0.33380395 8157550
-0.11144686 0.0012817979 0.33393845 8419692
